ply
format ascii 1.0
element vertex 710
comment bunny_partial_ori
property float x
property float y
property float z
end_header
-0.0591544993221759796 0.12973099946975708 0.0390507988631725311
0.0453303009271621704 0.0875808969140052795 0.0171699002385139465
-0.07062540203332901 0.129856005311012268 0.050642598420381546
0.0153262000530958176 0.0767707005143165588 0.0538598001003265381
0.022261299192905426 0.076846197247505188 0.0498129986226558685
0.0284966006875038147 0.0768216997385025024 0.0447581000626087189
0.0347020998597145081 0.076810397207736969 0.0396564006805419922
0.0398860983550548553 0.0766415968537330627 0.0330246016383171082
0.0441778004169464111 0.0763090029358863831 0.0250989999622106552
0.0428516007959842682 0.0972537994384765625 0.000192154999240301549
0.0284806005656719208 0.111435003578662872 0.0343317985534667969
0.0412878990173339844 0.0914658978581428528 -0.0087766498327255249
-0.0643910989165306091 0.133918002247810364 0.040265500545501709
-0.0893883034586906433 0.0956403017044067383 0.0164183992892503738
-0.0419020988047122955 0.157998993992805481 0.00424080993980169296
-0.0528207011520862579 0.12124200165271759 0.0358804985880851746
0.0358259007334709167 0.0928902998566627502 0.037888500839471817
0.0102028995752334595 0.0779578983783721924 0.0551885999739170074
0.0181919001042842865 0.0781799033284187317 0.052746698260307312
0.0249208994209766388 0.0782259032130241394 0.0483952984213829041
0.0311357993632555008 0.078210197389125824 0.0433100014925003052
0.0368134006857872009 0.0781200975179672241 0.0374599993228912354
0.0415850989520549774 0.0779004022479057312 0.0302476007491350174
0.0455444008111953735 0.0774865970015525818 0.0217208992689847946
0.0407616011798381805 0.105622000992298126 0.0111616998910903931
0.0291715003550052643 0.104768000543117523 0.0370746999979019165
-0.0585604012012481689 0.13393700122833252 0.0364007987082004547
-0.0516940988600254059 0.147804006934165955 0.0164165999740362167
-0.0335526987910270691 0.156608998775482178 0.00223348010331392288
-0.0590047016739845276 0.132541999220848083 0.037517201155424118
0.0433499999344348907 0.0902652963995933533 0.0251672994345426559
-0.0500289015471935272 0.122603997588157654 0.0328399986028671265
0.0120331998914480209 0.0793353989720344543 0.0543348006904125214
0.0198481008410453796 0.079533502459526062 0.0516115017235279083
0.0263535007834434509 0.079542502760887146 0.0469281002879142761
0.03273019939661026 0.0795508027076721191 0.0421016998589038849
0.0381362996995449066 0.079430602490901947 0.0358548983931541443
0.0425933003425598145 0.0791563019156455994 0.0282080993056297302
0.046119198203086853 0.0786876007914543152 0.0190772991627454758
-0.0884165987372398376 0.134979993104934692 0.00424240017309784889
-0.0242433007806539536 0.172721996903419495 -0.0123976003378629684
-0.0425302982330322266 0.153621003031730652 0.00682011013850569725
0.0442909002304077148 0.0959533974528312683 0.00417269999161362648
-0.0203437991440296173 0.180145993828773499 -0.0154935000464320183
-0.053808700293302536 0.119787998497486115 0.0361740998923778534
-0.0686206966638565063 0.128453001379966736 0.0500102005898952484
-0.0684451013803482056 0.117201000452041626 0.0519481003284454346
0.0129121001809835434 0.0806948021054267883 0.0538726001977920532
0.0205921009182929993 0.0807207003235816956 0.0509473010897636414
0.0270479004830121994 0.0808819979429244995 0.0462053008377552032
0.0334854982793331146 0.0808914974331855774 0.0414361990988254547
0.038807600736618042 0.0807596966624259949 0.0350812003016471863
0.0432388000190258026 0.0804741978645324707 0.027354000136256218
0.00612794980406761169 0.107303999364376068 -0.0203064996749162674
0.0340781994163990021 0.100772000849246979 0.0354180000722408295
-0.0669078975915908813 0.139705002307891846 0.043720100075006485
-0.055387500673532486 0.143884003162384033 0.0305001996457576752
-0.0359664000570774078 0.162375003099441528 -0.00125909002963453531
-0.093276098370552063 0.122750997543334961 0.0112822996452450752
0.0414492003619670868 0.102860003709793091 0.0161642003804445267
-0.0693797022104263306 0.128452003002166748 0.0506771989166736603
-0.0565656982362270355 0.116930000483989716 0.0374284014105796814
0.0126467999070882797 0.0820043012499809265 0.0535026006400585175
0.0204789992421865463 0.0822082012891769409 0.0508036017417907715
0.0270528998225927353 0.0822264030575752258 0.0462092012166976929
0.0334060005843639374 0.0822267979383468628 0.0413299985229969025
0.0387814007699489594 0.0821001976728439331 0.0350598990917205811
0.043313201516866684 0.081832103431224823 0.0274518001824617386
0.0303440000861883163 0.110100001096725464 0.0335022993385791779
0.0333570018410682678 0.10079599916934967 0.036106698215007782
-0.0532045997679233551 0.133930996060371399 0.0318349003791809082
-0.0832912996411323547 0.0938265994191169739 -0.0055645601823925972
0.0231487993150949478 0.116662003099918365 0.0336476005613803864
-0.0629277005791664124 0.161434993147850037 -0.0535909011960029602
0.04190019890666008 0.102863997220993042 0.0131587004289031029
-0.0566945001482963562 0.126945003867149353 0.0390945002436637878
0.0259904004633426666 0.108758002519607544 0.0377476997673511505
0.0125192003324627876 0.0833344012498855591 0.0533289983868598938
0.020330699160695076 0.0835300013422966003 0.0505880005657672882
0.0271048005670309067 0.0835777968168258667 0.0462962016463279724
0.0333657003939151764 0.0835668966174125671 0.041291501373052597
0.0387649014592170715 0.0834441035985946655 0.0350467003881931305
0.0433146990835666656 0.0831895023584365845 0.0275132004171609879
0.031015399843454361 0.110074996948242188 0.0327244997024536133
0.0326009988784790039 0.100800998508930206 0.0367684997618198395
-0.0683005005121231079 0.139736995100975037 0.0452156998217105865
0.0278197005391120911 0.108768999576568604 0.0368872992694377899
-0.0221398994326591492 0.168259993195533752 -0.0191907994449138641
-0.0352517999708652496 0.15659700334072113 0.00331286992877721786
0.0248885992914438248 0.114036999642848969 0.0344109013676643372
0.032652098685503006 0.108704999089241028 0.0315863005816936493
-0.063416600227355957 0.118510998785495758 0.0453283004462718964
0.0110128996893763542 0.0846936032176017761 0.0546682998538017273
0.0353211984038352966 0.108668997883796692 0.0283742006868124008
0.0253899991512298584 0.0849286988377571106 0.0474039018154144287
0.0317604988813400269 0.0849099978804588318 0.0425066985189914703
0.037329401820898056 0.0848074033856391907 0.0364737994968891144
0.0421361997723579407 0.0845969021320343018 0.029329199343919754
-0.07765989750623703 0.103463999927043915 0.0342448987066745758
-0.0541404001414775848 0.124101996421813965 0.0375109016895294189
-0.024783499538898468 0.166780993342399597 -0.00970724038779735565
-0.0495852008461952209 0.124004997313022614 0.0317322984337806702
-0.0116601996123790741 0.168403998017311096 -0.0170453004539012909
0.0442176982760429382 0.086080700159072876 -0.00279659009538590908
-0.0205930992960929871 0.163965001702308655 -0.00888333003968000412
0.0392897985875606537 0.0993143990635871887 0.0288309995085000992
-0.0564550012350082397 0.125540003180503845 0.0394322983920574188
0.0326792001724243164 0.103441998362541199 0.0351236015558242798
0.0142472004517912865 0.086044803261756897 0.0523279011249542236
0.0217652004212141037 0.0862021967768669128 0.0491663999855518341
0.0282773002982139587 0.0862158983945846558 0.0445154011249542236
0.034843001514673233 0.0862436965107917786 0.0399361997842788696
0.0399369001388549805 0.0860773026943206787 0.0331939011812210083
-0.0252490993589162827 0.162471994757652283 -0.0050722900778055191
0.0359993018209934235 0.0955222994089126587 0.0363789983093738556
-0.0395513996481895447 0.159447997808456421 0.00235112989321351051
0.0450966991484165192 0.0889618992805480957 0.00117112998850643635
-0.0680971965193748474 0.121444001793861389 0.0525081008672714233
0.0253164004534482956 0.112727999687194824 0.0350367017090320587
0.021776299923658371 0.115313000977039337 0.0351727008819580078
0.0192377008497714996 0.117983996868133545 0.0350387990474700928
-0.0435274988412857056 0.152141004800796509 0.00710463011637330055
-0.0657247975468635559 0.120040997862815857 0.050676099956035614
0.0100793000310659409 0.0873522013425827026 0.0550702996551990509
0.0167493000626564026 0.0874098017811775208 0.0506847016513347626
0.0245252996683120728 0.0875974968075752258 0.0479106009006500244
0.0308469999581575394 0.0875798016786575317 0.0429743006825447083
0.0367284007370471954 0.0875226035714149475 0.037387799471616745
0.0414488017559051514 0.0873043984174728394 0.0301507990807294846
-0.0302502997219562531 0.171230003237724304 -0.00702024996280670166
-0.0224127992987632751 0.163866996765136719 -0.00803237967193126678
-0.0217726007103919983 0.172729000449180603 -0.0141006996855139732
-0.0606582015752792358 0.124080002307891846 0.0421371012926101685
0.040788501501083374 0.105640001595020294 0.00816521979868412018
-0.0649088993668556213 0.110872998833656311 0.0375871993601322174
-0.0247741993516683578 0.180144995450973511 -0.00956801977008581161
-0.0471693016588687897 0.128157004714012146 0.0265222005546092987
0.0412885993719100952 0.085843600332736969 -0.00978207029402256012
-0.0520570017397403717 0.150879994034767151 0.0153954001143574715
0.0118565997108817101 0.0887261033058166504 0.0541580989956855774
0.0180830005556344986 0.0887399017810821533 0.0491141006350517273
0.0259940996766090393 0.0889184027910232544 0.0464980006217956543
0.0327920988202095032 0.0889735966920852661 0.0422707982361316681
0.0379525013267993927 0.0888234972953796387 0.0356697998940944672
0.0423207990825176239 0.0885481983423233032 0.0279120001941919327
0.0287101995199918747 0.0942447036504745483 0.043418198823928833
0.0369413010776042938 0.0993952006101608276 0.0325228981673717499
-0.0766704007983207703 0.15420299768447876 -0.00290271011181175709
-0.0350091010332107544 0.168256998062133789 -0.00164333998691290617
0.0105219995602965355 0.119126997888088226 0.0364690013229846954
-0.0581880994141101837 0.125521004199981689 0.0404357016086578369
-0.0625405013561248779 0.132491007447242737 0.0394340008497238159
-0.0216853991150856018 0.168304994702339172 -0.0122384997084736824
0.0451564006507396698 0.0931923985481262207 0.00517592020332813263
0.0454465001821517944 0.0903989002108573914 0.00417223991826176643
0.0125532001256942749 0.0900641977787017822 0.0534186996519565582
-0.0458572991192340851 0.147704005241394043 0.00717141013592481613
0.0266280993819236755 0.0902433991432189941 0.045658499002456665
0.0334235988557338715 0.0903004035353660583 0.0414245016872882843
0.0385284982621669769 0.0901385992765426636 0.0347351990640163422
0.0343004986643791199 0.110021002590656281 0.0286449994891881943
-0.0120305996388196945 0.174238994717597961 -0.0210891999304294586
0.0304752998054027557 0.100799001753330231 0.0389816984534263611
0.0351689010858535767 0.0928995013236999512 0.0387112982571125031
-0.0169569998979568481 0.186039000749588013 -0.0193264000117778778
-0.0249426998198032379 0.171230003237724304 -0.011658400297164917
-0.0859023034572601318 0.122520998120307922 -0.00270140008069574833
-0.0149483997374773026 0.177195996046066284 -0.0200334992259740829
0.0382385998964309692 0.0841939970850944519 -0.0147697003558278084
0.0310181006789207458 0.112726002931594849 0.0309618990868330002
0.0364996008574962616 0.0928817987442016602 0.0370771996676921844
0.0140027999877929688 0.0913920029997825623 0.0520061999559402466
-0.0546448007225990295 0.11543399840593338 0.0349037013947963715
0.028135199099779129 0.0915775969624519348 0.0443357005715370178
0.0346713997423648834 0.0916012004017829895 0.0397133007645606995
0.0395039990544319153 0.0914001986384391785 0.0327083989977836609
-0.0486522987484931946 0.128248006105422974 0.0296020004898309708
0.0442447997629642487 0.0902943015098571777 -0.00180306995753198862
-0.0532810017466545105 0.144674003124237061 0.0233765002340078354
-0.0180254001170396805 0.171268001198768616 -0.0157212000340223312
-0.0576045997440814972 0.151067003607749939 0.0326374992728233337
0.0234401002526283264 0.112664997577667236 0.0358138009905815125
-0.0348451994359493256 0.0957895964384078979 -0.0233484003692865372
-0.0615996010601520538 0.159996002912521362 -0.0335919000208377838
0.0309161003679037094 0.0955753996968269348 0.0413413010537624359
-0.0758557021617889404 0.103473000228404999 -0.0101675000041723251
-0.0678583011031150818 0.112732000648975372 0.0457592010498046875
-0.0761089026927947998 0.149997994303703308 -0.0108813997358083725
-0.0630974024534225464 0.16004200279712677 -0.0195595007389783859
0.0196495000272989273 0.0356663987040519714 -0.00567711004987359047
0.018101399764418602 0.0354956015944480896 -0.0136743998154997826
0.0216857008635997772 0.0374896004796028137 0.0372608006000518799
-0.0887110978364944458 0.101016998291015625 0.0193703006953001022
-0.0674790963530540466 0.0622216016054153442 0.0214031003415584564
0.041358601301908493 0.0394373983144760132 0.00625535007566213608
0.0218797996640205383 0.0374214015901088715 -0.00364164006896317005
0.0191275998950004578 0.0370481014251708984 -0.011679699644446373
0.0157740991562604904 0.0367150008678436279 -0.0196413006633520126
0.0219406001269817352 0.0388423018157482147 0.0393076017498970032
-0.0608313009142875671 0.0925119966268539429 -0.0191942993551492691
-0.0622546002268791199 0.152184993028640747 -0.0195774994790554047
-0.0679014995694160461 0.120916001498699188 -0.0089600803330540657
0.0440035983920097351 0.0411539003252983093 0.00525252008810639381
-0.0479764007031917572 0.13555300235748291 0.00940627045929431915
0.0200482998043298721 0.0385661013424396515 -0.0116897998377680779
0.0166439991444349289 0.0381609015166759491 -0.0197550002485513687
-0.0938955992460250854 0.118754997849464417 0.0202994998544454575
0.0259201005101203918 0.0406241007149219513 0.0333278998732566833
0.0380593016743659973 0.0869714021682739258 -0.014728800393640995
-0.0408343002200126648 0.0942886993288993835 -0.0229155998677015305
0.0484774000942707062 0.04313649982213974 0.00824397988617420197
0.0417307987809181213 0.0422748997807502747 0.000248642987571656704
0.0219640005379915237 0.0402022004127502441 -0.0087061198428273201
0.019799400120973587 0.0399634018540382385 -0.0167041998356580734
-0.0106525002047419548 0.16517600417137146 -0.0166430007666349411
-0.0622266009449958801 0.158390998840332031 -0.0366040989756584167
0.0260496009141206741 0.0420955009758472443 0.0353242009878158569
-0.0736180990934371948 0.0688667967915534973 0.0266731996089220047
-0.0668226033449172974 0.0923513993620872498 -0.0172569993883371353
0.0508472993969917297 0.0446621999144554138 0.0112161999568343163
0.0483875013887882233 0.0444573983550071716 0.00325794005766510963
0.0253381002694368362 0.0418726988136768341 -0.00588505994528532028
0.0214529000222682953 0.041582401841878891 -0.0137010002508759499
0.0173166003078222275 0.0411975011229515076 -0.0216758009046316147
-0.00904729962348937988 0.168145999312400818 -0.0217174999415874481
-0.0135829001665115356 0.0370200015604496002 0.0510107986629009247
-0.0801810994744300842 0.108648002147674561 -0.0036037699319422245
-0.0720238983631134033 0.158203005790710449 -0.0389151982963085175
0.051859099417924881 0.0461434014141559601 0.0192109998315572739
0.0527843013405799866 0.046244300901889801 0.0112062999978661537
0.050508599728345871 0.0461176000535488129 0.003262300044298172
-0.00017389199638273567 0.120962999761104584 -0.0122496001422405243
0.0224201995879411697 0.0430391989648342133 -0.012730100192129612
0.0200865995138883591 0.042933199554681778 -0.0206713993102312088
-0.0926192998886108398 0.122847996652126312 0.0312739014625549316
-0.0101058995351195335 0.17112499475479126 -0.0207965001463890076
-0.0486667007207870483 0.134011998772621155 0.00340207992121577263
-0.00920453015714883804 0.175558999180793762 -0.0287980996072292328
-0.0631010010838508606 0.150494992733001709 -0.0266018006950616837
0.0545899011194705963 0.0478435009717941284 0.0151974000036716461
0.0535575002431869507 0.0477942004799842834 0.0072134002111852169
0.0488618984818458557 0.0474359989166259766 -0.000620947976130992174
0.0267162993550300598 0.0450607985258102417 -0.00869474001228809357
0.0221670996397733688 0.0444703996181488037 -0.0167619995772838593
0.0506759993731975555 0.06938210129737854 0.00244947988539934158
-0.062504500150680542 0.16005299985408783 -0.0215633995831012726
-0.0615083016455173492 0.170965000987052917 -0.0565878003835678101
-0.0468428991734981537 0.132502004504203796 0.00641277991235256195
-0.0631401985883712769 0.158352002501487732 -0.0425984002649784088
0.0542672984302043915 0.0491963997483253479 0.0212031006813049316
0.0561477988958358765 0.0493932999670505524 0.0131905004382133484
0.0547498986124992371 0.049294598400592804 0.00521444017067551613
0.0484395995736122131 0.0486950986087322235 -0.00266239000484347343
0.0277468003332614899 0.0465680994093418121 -0.0107175996527075768
0.0217639002948999405 0.0458253994584083557 -0.018868299201130867
-0.000266462011495605111 0.0936214029788970947 -0.0332217998802661896
-0.0623698011040687561 0.169401004910469055 -0.0505858995020389557
-0.0622523017227649689 0.152180999517440796 -0.0215757992118597031
-0.0785045027732849121 0.11114799976348877 0.0455754995346069336
-0.063174903392791748 0.149000003933906555 -0.0205831993371248245
0.0569922998547554016 0.0508892014622688293 0.0171853993088006973
0.0569538995623588562 0.0508846007287502289 0.00918952003121376038
0.0535386018455028534 0.0505579002201557159 0.00123437994625419378
0.0293799005448818207 0.0892795994877815247 -0.0205262992531061172
0.027906099334359169 0.0479695983231067657 -0.01473969966173172
-0.0106758996844291687 0.119083002209663391 -0.0141800995916128159
0.0416777990758419037 0.102862998843193054 0.0151610001921653748
-0.0686144009232521057 0.0632302984595298767 0.0220506004989147186
-0.064628899097442627 0.156693994998931885 -0.046597599983215332
-0.0465876013040542603 0.132486000657081604 0.00741918990388512611
0.0577519983053207397 0.0523415990173816681 0.018187299370765686
0.0579125992953777313 0.0523842014372348785 0.0101848002523183823
0.0551014989614486694 0.0521064996719360352 0.00221795006655156612
-0.0913489013910293579 0.117296002805233002 0.00730628985911607742
0.0293304994702339172 0.0495360009372234344 -0.0137505000457167625
0.0322640985250473022 0.111939996480941772 -0.006630689837038517
-0.0625239983201026917 0.167829006910324097 -0.0475901998579502106
-0.0627434998750686646 0.147489994764328003 -0.0135843995958566666
-0.0497918017208576202 0.143215999007225037 0.0113941002637147903
-0.0487556010484695435 0.13705599308013916 0.00741027016192674637
0.0579591989517211914 0.0537863001227378845 0.0201792996376752853
0.0587825998663902283 0.0538551993668079376 0.0121764997020363808
0.0567259006202220917 0.0536427982151508331 0.00417777989059686661
-0.00559978978708386421 0.114688001573085785 -0.0175181999802589417
0.0309108998626470566 0.0511672012507915497 -0.0117351999506354332
0.027197299525141716 0.0508207008242607117 -0.0197147000581026077
-0.0579079017043113708 0.121933996677398682 -0.00872095022350549698
-0.0869607031345367432 0.111737996339797974 0.00633150991052389145
-0.0391911007463932037 0.149452000856399536 0.000405422004405409098
-0.0614752992987632751 0.156859993934631348 -0.0265875998884439468
0.03991679847240448 0.0999289005994796753 0.0271557997912168503
0.059161599725484848 0.0552764981985092163 0.0151752997189760208
0.0583176985383033752 0.0551766008138656616 0.00716644013300538063
0.0541546009480953217 0.0547912009060382843 -0.000791321974247694016
0.0333333015441894531 0.0528010986745357513 -0.00875184033066034317
0.0295343995094299316 0.0524337999522686005 -0.0167462993413209915
-0.0151271000504493713 0.118704997003078461 -0.0137294000014662743
-0.0622358992695808411 0.167822003364562988 -0.0495929010212421417
-0.0635899975895881653 0.1535940021276474 -0.0356330014765262604
-0.0502711981534957886 0.143188998103141785 0.0133798001334071159
-0.0624074004590511322 0.149100005626678467 -0.00957360025495290756
0.0589395985007286072 0.0566474981606006622 0.0201756991446018219
0.0597837008535861969 0.056704498827457428 0.0121686002239584923
0.0577560998499393463 0.0565381012856960297 0.0041943499818444252
-0.0346229001879692078 0.116833001375198364 -0.0136016001924872398
0.0324154011905193329 0.0541401989758014679 -0.0117354998365044594
0.0278843007981777191 0.0536982007324695587 -0.0197694990783929825
-0.00874781981110572815 0.125790998339653015 -0.00734235020354390144
-0.0627140998840332031 0.159942999482154846 -0.0425973981618881226
-0.0492939017713069916 0.133961006999015808 0.00142724998295307159
-0.0638348981738090515 0.156747996807098389 -0.0426050983369350433
-0.0631467998027801514 0.156791001558303833 -0.0395997017621994019
0.0597168989479541779 0.058086298406124115 0.0181824993342161179
0.0601313002407550812 0.0581271983683109283 0.0101639004424214363
0.0570719018578529358 0.057842399924993515 0.00217675999738276005
-0.0942376032471656799 0.122836001217365265 0.0242829993367195129
0.0319954007863998413 0.0554567985236644745 -0.0137988999485969543
0.0253640003502368927 0.0547555014491081238 -0.0216570999473333359
-0.0855476036667823792 0.136296004056930542 0.00125684996601194143
0.0390547998249530792 0.0884874984622001648 -0.0128108002245426178
-0.0856264010071754456 0.11033099889755249 0.00634317006915807724
-0.0292630996555089951 0.0351385995745658875 0.0510616004467010498
-0.0679930001497268677 0.061927400529384613 0.0197800006717443466
0.0597447007894515991 0.0594744011759757996 0.0191904008388519287
0.0606492012739181519 0.0595518015325069427 0.0111602004617452621
0.0582234002649784088 0.0593447014689445496 0.00320203998126089573
-0.0920649990439414978 0.118754997849464417 0.0273051001131534576
0.0338990986347198486 0.0571190007030963898 -0.012714100070297718
0.0266312994062900543 0.0563971996307373047 -0.0207832008600234985
-0.0774115994572639465 0.159695997834205627 -0.0249188002198934555
0.045560099184513092 0.0904133990406990051 0.0111659998074173927
-0.0693902000784873962 0.067271798849105835 0.028937099501490593
-0.0500704012811183929 0.137041002511978149 0.0213926993310451508
-0.0492132008075714111 0.138613000512123108 0.0153976995497941971
0.0592969991266727448 0.0608378984034061432 0.0211666002869606018
0.0608602985739707947 0.0609708987176418304 0.0131614003330469131
0.0594014003872871399 0.0608280003070831299 0.00515272002667188644
-0.0910269021987915039 0.129537999629974365 0.00725150015205144882
0.0361211001873016357 0.0586877018213272095 -0.0107677998021245003
0.0289187002927064896 0.0580128990113735199 -0.018788900226354599
0.027049800381064415 0.0919981002807617188 -0.0213751997798681259
-0.076546497642993927 0.107864998281002045 0.0361429005861282349
-0.061607901006937027 0.160003006458282471 -0.0285892002284526825
-0.0518659017980098724 0.144685998558998108 0.0163701009005308151
-0.0616789981722831726 0.175512999296188354 -0.0613810010254383087
-0.0788576006889343262 0.105851002037525177 -0.00657973997294902802
0.0607950016856193542 0.0623424984514713287 0.0151667995378375053
0.0601641982793807983 0.0622864998877048492 0.00714020011946558952
-0.0794787034392356873 0.104524001479148865 -0.00660042976960539818
0.0382146984338760376 0.0603207983076572418 -0.00873991008847951889
0.0322222001850605011 0.0597860999405384064 -0.016688099130988121
0.0179184991866350174 0.121996000409126282 -0.0074785999022424221
0.0455408990383148193 0.0918153971433639526 0.00916521996259689331
-0.028619399294257164 0.180014997720718384 -0.0140329999849200249
-0.0586979985237121582 0.0349789001047611237 0.0448460988700389862
-0.0614885985851287842 0.156862005591392517 -0.0235898997634649277
-0.0512926988303661346 0.13542899489402771 -0.00055248697753995657
0.0607770010828971863 0.0637293010950088501 0.016164800152182579
0.060293201357126236 0.0636878013610839844 0.00814034976065158844
-0.0798640996217727661 0.145898997783660889 -0.00181913003325462341
0.0390674993395805359 0.0617702007293701172 -0.00778265995904803276
0.0335660986602306366 0.0612751990556716919 -0.0157609991729259491
0.025351300835609436 0.0605347007513046265 -0.0238886997103691101
-0.0911853015422821045 0.113324001431465149 0.0173234995454549789
-0.0627086982131004333 0.161507993936538696 -0.046595301479101181
-0.076975598931312561 0.068554997444152832 0.0156380999833345413
-0.0489315018057823181 0.137078002095222473 0.0173941999673843384
-0.0793623030185699463 0.0739499032497406006 0.0245990008115768433
0.0597098991274833679 0.0650291964411735535 0.0201783999800682068
0.0608928985893726349 0.0651253014802932739 0.0121512003242969513
0.0585126988589763641 0.0649228990077972412 0.00410871021449565887
-0.0894720032811164856 0.0929609984159469604 0.0204149000346660614
0.0371108986437320709 0.063010096549987793 -0.0117592001333832741
0.0294467005878686905 0.0623083002865314484 -0.0198500994592905045
-0.0938277989625930786 0.12829899787902832 0.0222532004117965698
-0.0935434997081756592 0.1187639981508255 0.0233044996857643127
-0.0617319010198116302 0.16000799834728241 -0.0275855995714664459
0.0319929011166095734 0.0881460011005401611 -0.0193445999175310135
-0.0618750005960464478 0.156867995858192444 -0.0195857007056474686
-0.0409029014408588409 0.149467006325721741 0.00342300999909639359
0.0604129992425441742 0.0664732977747917175 0.0171649996191263199
0.0600634999573230743 0.0664445012807846069 0.00913698039948940277
-0.09029339998960495 0.147439002990722656 0.012157900258898735
0.0404164008796215057 0.0647147968411445618 -0.00677085015922784805
0.0347681008279323578 0.0641816034913063049 -0.0148051995784044266
-0.0728965997695922852 0.155444994568824768 -0.0329107008874416351
-0.0899880975484848022 0.118598997592926025 0.00429897988215088844
0.0450177006423473358 0.0875447019934654236 0.000184881006134673953
-0.0618484988808631897 0.153751999139785767 -0.0205795001238584518
-0.0911270007491111755 0.143390998244285583 0.0261688008904457092
-0.0616337992250919342 0.0739295035600662231 0.0406211987137794495
-0.0681397020816802979 0.0738079026341438293 0.037609398365020752
0.0604149997234344482 0.0678562000393867493 0.0151973003521561623
0.0591058991849422455 0.067754797637462616 0.00712748011574149132
-0.0378804989159107208 0.108506001532077789 -0.0197589993476867676
0.0398123003542423248 0.0660530030727386475 -0.00878745969384908676
0.0337175987660884857 0.0655129030346870422 -0.0167916994541883469
-0.0627690032124519348 0.175494998693466187 -0.061569899320602417
-0.0924063026905059814 0.129577994346618652 0.0112381000071763992
0.044565301388502121 0.094572998583316803 0.0151615999639034271
-0.0178004000335931778 0.121647000312805176 -0.00876547954976558685
-0.00876131001859903336 0.174216002225875854 -0.0276966001838445663
-0.0499496981501579285 0.0724883005023002625 0.0409515984356403351
-0.0659760013222694397 0.062466498464345932 0.0232686009258031845
0.0599383004009723663 0.0692126005887985229 0.0131497997790575027
-0.084730103611946106 0.096643596887588501 -0.00257685990072786808
0.0423782989382743835 0.067687496542930603 -0.00279832002706825733
0.0391880981624126434 0.0673983991146087646 -0.0107968999072909355
0.0317418985068798065 0.0667553022503852844 -0.0187125001102685928
-0.0302926991134881973 0.117007002234458923 -0.0138210998848080635
-0.0934649035334587097 0.120071999728679657 0.0123033998534083366
-0.062343500554561615 0.161535993218421936 -0.0425936989486217499
-0.0771178975701332092 0.165222004055976868 -0.0359739996492862701
-0.052453998476266861 0.138539999723434448 0.0254098996520042419
-0.0723621025681495667 0.114661000669002533 0.0512849986553192139
-0.0699437037110328674 0.066904798150062561 0.0273786000907421112
-0.0909698978066444397 0.113312996923923492 0.0183240007609128952
-0.0347028002142906189 0.122731000185012817 -0.00776715995743870735
0.042345099151134491 0.0690926015377044678 -0.00378896994516253471
0.038803398609161377 0.068773902952671051 -0.0117998002097010612
0.0296785999089479446 0.0679688006639480591 -0.019834199920296669
-0.0897848010063171387 0.135174006223678589 0.0342114008963108063
-0.0095255700871348381 0.169814005494117737 -0.0256003998219966888
0.0446233004331588745 0.0903218016028404236 -0.000806953990831971169
-0.0308704990893602371 0.0385373011231422424 -0.0301935002207756042
-0.0391113981604576111 0.149508997797966003 -0.00165293004829436541
-0.046662498265504837 0.125229999423027039 -0.00836411956697702408
-0.0620153993368148804 0.164635002613067627 -0.0555846989154815674
0.0407264009118080139 0.0999946966767311096 0.0251764003187417984
-0.0865430980920791626 0.106354996562004089 0.0183534007519483566
0.0427169986069202423 0.0705280974507331848 -0.00378792011179029942
0.0387854017317295074 0.0701818019151687622 -0.0117862001061439514
0.0302997995167970657 0.0694383978843688965 -0.0198120009154081345
-0.0933213979005813599 0.129621997475624084 0.017240399494767189
-0.0624366998672485352 0.153758004307746887 -0.0135797997936606407
-0.0630898028612136841 0.161514997482299805 -0.0224550999701023102
-0.0927165001630783081 0.117489002645015717 0.0383034981787204742
-0.0099536702036857605 0.166810005903244019 -0.0217202994972467422
-0.0624159015715122223 0.150639995932579041 -0.0165739990770816803
0.0454220995306968689 0.0889974012970924377 0.0141645995900034904
-0.0765582993626594543 0.148625001311302185 -0.00886956043541431427
-0.086872398853302002 0.106357000768184662 0.0173489004373550415
0.0426284000277519226 0.0719164013862609863 -0.00480026006698608398
0.0375263988971710205 0.0714821964502334595 -0.0127977002412080765
0.0300165992230176926 0.0708303973078727722 -0.0207822993397712708
-0.0797747001051902771 0.106127001345157623 0.031384199857711792
-0.0907747969031333923 0.121330000460147858 0.00629364000633358955
-0.0248319990932941437 0.0930097997188568115 -0.0316178984940052032
0.0449548996984958649 0.0889654010534286499 0.0201657004654407501
0.0455369986593723297 0.0890033021569252014 0.0131642995402216911
-0.0624127015471458435 0.150637000799179077 -0.0175762996077537537
-0.010792500339448452 0.180279999971389771 -0.0267447996884584427
0.0433553010225296021 0.0860086977481842041 -0.00480358023196458817
0.0457702018320560455 0.0735931023955345154 0.0032076400239020586
0.0427320003509521484 0.073331296443939209 -0.00479409005492925644
0.0371376015245914459 0.0728555992245674133 -0.012789599597454071
0.030286099761724472 0.0722616016864776611 -0.0207986999303102493
-0.0123225003480911255 0.124090999364852905 -0.00743567012250423431
-0.0920663028955459595 0.121362000703811646 0.00826874002814292908
-0.062412600964307785 0.161535993218421936 -0.0416010990738868713
0.0455984994769096375 0.0918131992220878601 0.00816711969673633575
-0.0181418992578983307 0.159077003598213196 -0.00932451989501714706
-0.0614661015570163727 0.174126997590065002 -0.0585981011390686035
-0.0618249997496604919 0.164563000202178955 -0.0576804988086223602
-0.0630514994263648987 0.152177006006240845 -0.00858675036579370499
0.0461993999779224396 0.0750316008925437927 0.00518987001851201057
0.0436422005295753479 0.0748108997941017151 -0.00280303996987640858
0.0390327014029026031 0.0744185969233512878 -0.0107818003743886948
0.0323758982121944427 0.0738625973463058472 -0.0187417995184659958
-0.0726673007011413574 0.155436992645263672 -0.0339105986058712006
-0.0610596984624862671 0.172553002834320068 -0.0606090985238552094
-0.0619966983795166016 0.147609993815422058 -0.00462245987728238106
-0.0497157983481884003 0.140127003192901611 0.00540861021727323532
-0.0623583011329174042 0.164673000574111938 -0.0485921017825603485
-0.0934749990701675415 0.128299996256828308 0.0242551006376743317
-0.0705529004335403442 0.0628293976187705994 0.0184735991060733795
-0.051677800714969635 0.140064001083374023 0.021375700831413269
0.0463722012937068939 0.0764454007148742676 0.00719365011900663376
0.0446565002202987671 0.0762989968061447144 -0.000806919997557997704
0.0401891991496086121 0.07592029869556427 -0.0087973298504948616
0.0336663983762264252 0.0753804966807365417 -0.0167583003640174866
-0.0236464999616146088 0.184410005807876587 -0.0150531996041536331
-0.0907185971736907959 0.113288998603820801 0.0113418996334075928
0.0438711009919643402 0.0959127023816108704 0.00218341988511383533
-0.0909093990921974182 0.114611998200416565 0.0400043018162250519
-0.0913745015859603882 0.14200100302696228 0.0211606994271278381
0.0388282984495162964 0.102660998702049255 -0.0048184501938521862
-0.0476612001657485962 0.135572001338005066 0.0133995003998279572
0.0216437000781297684 0.120011001825332642 -0.00733338994905352592
0.0464068017899990082 0.0778554975986480713 0.00918735004961490631
0.0452800989151000977 0.0777562037110328674 0.00119406997691839933
0.0416043996810913086 0.0774454027414321899 -0.00680350000038743019
0.0356785990297794342 0.0769670009613037109 -0.0147449998185038567
-0.0890273004770278931 0.0956446006894111633 0.0213990006595849991
-0.081751599907875061 0.140386000275611877 -0.000790240999776870012
-0.0119460001587867737 0.163588002324104309 -0.0146751003339886665
0.0434133000671863556 0.0930688977241516113 -0.00182579003740102053
-0.0504724010825157166 0.14167100191116333 0.0164027996361255646
0.0429024994373321533 0.100097000598907471 0.0151567002758383751
-0.0618543997406959534 0.174098998308181763 -0.0565963014960289001
-0.0884886980056762695 0.12261199951171875 0.00129126000683754683
0.046434398740530014 0.0792618021368980408 0.0111808003857731819
0.0457653999328613281 0.0791978985071182251 0.00319645996205508709
0.0428337007761001587 0.0789534002542495728 -0.0047828000970184803
0.0375249981880187988 0.0785071030259132385 -0.012798200361430645
0.0306135993450880051 0.0779431015253067017 -0.0207534004002809525
-0.0842531025409698486 0.102058999240398407 -0.00160079996567219496
-0.0922420024871826172 0.128315001726150513 0.0292604006826877594
-0.0620218999683856964 0.161551997065544128 -0.0385958999395370483
0.0423147007822990417 0.0916040018200874329 0.0271556992083787918
-0.0320536009967327118 0.0356449000537395477 0.0500424988567829132
-0.0724880024790763855 0.172224998474121094 -0.0500328987836837769
0.0456498004496097565 0.0806033983826637268 0.0211599990725517273
0.0462743006646633148 0.0806462988257408142 0.0131735997274518013
0.0461298003792762756 0.0806287974119186401 0.00519237015396356583
0.0438423007726669312 0.0804361999034881592 -0.00278861005790531635
0.0397235006093978882 0.0801289975643157959 -0.0107509996742010117
0.0331160984933376312 0.0795686990022659302 -0.0187107007950544357
-0.0697083026170730591 0.16380000114440918 -0.049969501793384552
-0.0941834002733230591 0.120103001594543457 0.0162918996065855026
-0.0896333009004592896 0.0929554030299186707 0.0184310004115104675
-0.0865854993462562561 0.100864998996257782 0.00437927991151809692
-0.0524570010602474213 0.144675001502037048 0.0183665007352828979
-0.0693700984120368958 0.141497001051902771 -0.00893396977335214615
0.0449290983378887177 0.081952996551990509 0.0231599994003772736
0.0460316985845565796 0.0820287987589836121 0.0151733001694083214
0.0462590008974075317 0.0820394977927207947 0.00718470010906457901
0.0443742014467716217 0.0818794965744018555 -0.000800453999545425177
0.041108299046754837 0.0816432982683181763 -0.00876202993094921112
0.0358806997537612915 0.0812281966209411621 -0.0166922993957996368
-0.0694684013724327087 0.158125996589660645 -0.0509378984570503235
-0.0819818973541259766 0.112796999514102936 -0.000848268973641097546
-0.0626730993390083313 0.158366993069648743 -0.0396044999361038208
-0.0506750009953975677 0.140101000666618347 0.00240439991466701031
-0.0498122014105319977 0.141672000288963318 0.00439987005665898323
0.0420573018491268158 0.0943631976842880249 -0.00379152991808950901
0.0448638983070850372 0.0833491981029510498 0.0231749992817640305
0.0458871982991695404 0.083415500819683075 0.0151706002652645111
0.0461375005543231964 0.0834297984838485718 0.00718398019671440125
0.044135700911283493 0.0832659974694252014 -0.000805735995527356863
0.0413985997438430786 0.083057798445224762 -0.0087738698348402977
0.0362922996282577515 0.082646101713180542 -0.0167222004383802414
-0.0904683023691177368 0.135080993175506592 0.01422869972884655
-0.0893947035074234009 0.113204002380371094 0.00833334960043430328
-0.0630273967981338501 0.166296005249023438 -0.0405840016901493073
-0.0301923993974924088 0.153973996639251709 -0.00357072008773684502
-0.061726100742816925 0.158411994576454163 -0.0335948988795280457
-0.0618566982448101044 0.156837001442909241 -0.0325918011367321014
0.0441953986883163452 0.0847003981471061707 0.0251589007675647736
0.0455822013318538666 0.0848003998398780823 0.0171734001487493515
0.0461210012435913086 0.0848311036825180054 0.00917503982782363892
0.0447673015296459198 0.0847221016883850098 0.00118920998647809029
-0.0353047996759414673 0.127500995993614197 0.00687019014731049538
-0.0687370970845222473 0.155895993113517761 0.0104628996923565865
-0.0317183993756771088 0.124145001173019409 0.0214761998504400253
-0.0653109028935432434 0.180420994758605957 -0.0593141987919807434
-0.0421608984470367432 0.128746002912521362 0.00435225013643503189
-0.041383698582649231 0.128875002264976501 0.00906534027308225632
-0.0641686022281646729 0.178174003958702087 -0.0558404996991157532
-0.0458838008344173431 0.129671007394790649 0.00293554994277656078
-0.0653899982571601868 0.178764998912811279 -0.0548301003873348236
-0.0450609996914863586 0.130334004759788513 0.0180278997868299484
-0.0654027983546257019 0.177570998668670654 -0.0533846989274024963
-0.0718019977211952209 0.181052997708320618 -0.055655401200056076
-0.0642727985978126526 0.174473002552986145 -0.0515363998711109161
-0.0695824027061462402 0.180795997381210327 -0.0534457005560398102
-0.0927086025476455688 0.122859999537467957 0.0332776010036468506
-0.00589664001017808914 0.098096601665019989 0.0519993007183074951
-0.0687469020485877991 0.179150998592376709 -0.0517126992344856262
-0.0159686002880334854 0.128427997231483459 0.018285699188709259
-0.0423133000731468201 0.12913300096988678 0.00872164033353328705
-0.0455311983823776245 0.131052002310752869 0.00748080993071198463
-0.0449048988521099091 0.167414993047714233 0.00301648001186549664
-0.0718332976102828979 0.156164005398750305 0.0224549993872642517
-0.0673329979181289673 0.176599994301795959 -0.0497355014085769653
-0.0739945024251937866 0.180199995636940002 -0.0521964989602565765
-0.0558317005634307861 0.154614001512527466 0.0193814001977443695
-0.0717922002077102661 0.153989002108573914 -0.0428988002240657806
-0.0466801002621650696 0.130915999412536621 0.0233152005821466446
-0.067325197160243988 0.149333998560905457 0.0390085987746715546
-0.0837768986821174622 0.153466001152992249 0.0110187996178865433
-0.0673893019556999207 0.156702995300292969 -0.00509746000170707703
-0.0114267002791166306 0.182822003960609436 -0.0276369005441665649
-0.063609197735786438 0.170092999935150146 -0.0469941012561321259
-0.0686886012554168701 0.176906004548072815 -0.0487673990428447723
-0.0759162008762359619 0.179383993148803711 -0.0516057983040809631
-0.0708692967891693115 0.149701997637748718 0.0392474010586738586
-0.0285717006772756577 0.12063000351190567 0.0270994007587432861
-0.00613038009032607079 0.0999315008521080017 0.0488982014358043671
0.00990352034568786621 0.130870997905731201 0.0175976008176803589
-0.0718747004866600037 0.151003003120422363 0.0373735986649990082
-0.0697747021913528442 0.155761003494262695 0.0260978005826473236
-0.0291840992867946625 0.125367999076843262 0.016484500840306282
-0.011086699552834034 0.18024800717830658 -0.025981999933719635
-0.051411699503660202 0.13465900719165802 0.0288826990872621536
-0.0665218010544776917 0.173688992857933044 -0.0465659014880657196
-0.0724406987428665161 0.178856998682022095 -0.0487083010375499725
-0.00309452996589243412 0.0984522029757499695 0.0515066012740135193
-0.0879580006003379822 0.123949997127056122 0.000268767995294183493
-0.0763653963804244995 0.155962005257606506 0.0179623998701572418
-0.0671228021383285522 0.150867000222206116 0.0375154986977577209
-0.074659496545791626 0.156169995665550232 0.0170913003385066986
-0.0356597006320953369 0.124590002000331879 0.0229985006153583527
0.0114257996901869774 0.129162997007369995 0.0238841008394956589
-0.0922854021191596985 0.116039000451564789 0.0223382003605365753
-0.0643687024712562561 0.155313998460769653 0.00767719000577926636
-0.0712423995137214661 0.155683994293212891 0.00373917003162205219
-0.0708782970905303955 0.150831997394561768 0.0377200990915298462
-0.0657123029232025146 0.171985998749732971 -0.0448274016380310059
-0.0715385973453521729 0.177350997924804688 -0.0469380989670753479
-0.075034700334072113 0.154670998454093933 0.0286992993205785751
-0.0846054032444953918 0.110359996557235718 0.0253599993884563446
-0.0805113017559051514 0.153427004814147949 0.0283512994647026062
-0.0561650991439819336 0.153257995843887329 0.02805279940366745
-0.0270194001495838165 0.125679999589920044 0.0143315000459551811
-0.0442161001265048981 0.123225003480911255 0.0243958998471498489
0.023695899173617363 0.120687000453472137 0.0298433993011713028
-0.0211708005517721176 0.123144000768661499 -0.00636627990752458572
-0.0471993014216423035 0.162131994962692261 -0.00733311986550688744
-0.0689895004034042358 0.156344994902610779 -0.00130195997189730406
-0.0509090013802051544 0.135811999440193176 0.0260882005095481873
-0.0602647997438907623 0.153206005692481995 0.03243270143866539
-0.0655596032738685608 0.171142995357513428 -0.0433207005262374878
-0.0714180022478103638 0.176405996084213257 -0.0454588010907173157
-0.0627956986427307129 0.15342499315738678 0.033007398247718811
0.00997537001967430115 0.129323005676269531 0.0247881002724170685
-0.0928971022367477417 0.117367997765541077 0.0123132001608610153
0.00811586994677782059 0.129858002066612244 0.0241077002137899399
0.00713748997077345848 0.130032002925872803 0.0237524006515741348
0.00616007018834352493 0.130230993032455444 0.0233995001763105392
0.00517894979566335678 0.130408003926277161 0.0230465997010469437
0.00321463006548583508 0.130704998970031738 0.0223232991993427277
-0.0891046971082687378 0.101025998592376709 0.0153900999575853348
-0.0719363018870353699 0.129667997360229492 -0.00868329964578151703
-0.0389633998274803162 0.128304004669189453 0.0114308996126055717
-0.0672660991549491882 0.155708998441696167 0.00954294018447399139
-0.0800696983933448792 0.154440999031066895 0.0255088992416858673
-0.0660426020622253418 0.171123996376991272 -0.042038600891828537
-0.072069801390171051 0.176015004515647888 -0.0442708991467952728
-0.062104199081659317 0.153787001967430115 0.0317461006343364716
-0.0923736989498138428 0.128196001052856445 0.0102559002116322517
-0.0931626036763191223 0.117374002933502197 0.0143042998388409615
-0.0681397989392280579 0.156013995409011841 0.0252192001789808273
-0.0924452990293502808 0.114684000611305237 0.0163205992430448532
-0.0620031990110874176 0.154899001121520996 0.00420466018840670586
-0.0862421020865440369 0.143270000815391541 0.00816028006374835968
-0.089211098849773407 0.0956026017665863037 0.0114219002425670624
-0.0782926976680755615 0.0989969968795776367 -0.00960155017673969269
-0.0831283032894134521 0.107447996735572815 0.000408411986427381635
-0.0111298998817801476 0.129809007048606873 0.0171218998730182648
-0.0707350969314575195 0.156207993626594543 0.0228365994989871979
-0.0859010964632034302 0.134921997785568237 0.00126736995298415422
-0.064548298716545105 0.168715000152587891 -0.0400433987379074097
-0.070281103253364563 0.174209997057914734 -0.0421288982033729553
-0.0777039974927902222 0.175862997770309448 -0.0450747013092041016
-0.0172604992985725403 0.1282929927110672 0.014912700280547142
-0.0299989003688097 0.178534001111984253 -0.014005499891936779
-0.0786724984645843506 0.155640006065368652 0.0171569008380174637
-0.00904759019613265991 0.099406898021697998 0.0493883006274700165
-0.00125146994832903147 0.122854001820087433 0.0353000015020370483
-0.0209254007786512375 0.127400994300842285 0.0135903004556894302
-0.0916490033268928528 0.146116003394126892 0.0221478007733821869
-0.0924521982669830322 0.125595003366470337 0.0392515994608402252
-0.0801841989159584045 0.0990978032350540161 -0.00757646979764103889
-0.0798316001892089844 0.111317999660968781 -0.00180654996074736118
-0.0769777968525886536 0.155918002128601074 0.0162847992032766342
-0.00338535988703370094 0.100167997181415558 0.0483773015439510345
-0.0293793994933366776 0.119961999356746674 0.0282912999391555786
-0.0655971989035606384 0.169627994298934937 -0.0389927998185157776
-0.0716330036520957947 0.174548998475074768 -0.0412084013223648071
-0.0110237998887896538 0.0985850021243095398 0.0502027012407779694
0.0569192990660667419 0.0710091963410377502 0.0071485498920083046
-0.085611000657081604 0.106331996619701385 0.0213600005954504013
0.0039641200564801693 0.0977772027254104614 0.0510597005486488342
-0.0728072002530097961 0.150120005011558533 0.0385586991906166077
-0.0068004499189555645 0.129424005746841431 0.024488300085067749
0.034850098192691803 0.11208699643611908 -0.00040812199586071074
0.0291243009269237518 0.117711998522281647 -0.00241856998763978481
0.0419459007680416107 0.0625407993793487549 -0.00274770008400082588
-0.0824726969003677368 0.0992304012179374695 -0.00559051986783742905
-0.0869937017560005188 0.104951001703739166 0.00838372018188238144
-0.0492122992873191833 0.134029000997543335 0.025272199884057045
-0.06213340163230896 0.155990004539489746 0.0157191008329391479
-0.07807130366563797 0.150402992963790894 0.036755099892616272
-0.0659808963537216187 0.169802993535995483 -0.0376960001885890961
-0.0722467973828315735 0.174257993698120117 -0.0400012992322444916
-0.0405228994786739349 0.128682002425193787 0.00643621990457177162
0.0567910000681877136 0.071730099618434906 0.00860789977014064789
-0.0270715001970529556 0.179993003606796265 -0.0160071998834609985
-0.00640559988096356392 0.100469999015331268 0.047275099903345108
-0.0537252984941005707 0.15116100013256073 0.0246274992823600769
0.0151621997356414795 0.122267000377178192 0.0324379988014698029
0.0348028987646102905 0.113058000802993774 0.00110003002919256687
0.028993699699640274 0.118367999792098999 -0.00105098995845764875
-0.0888371020555496216 0.094224296510219574 0.00943852029740810394
-0.093244403600692749 0.124186001718044281 0.0272829998284578323
-0.0900892987847328186 0.135134994983673096 0.0242145005613565445
-0.0324184000492095947 0.123700998723506927 0.022701900452375412
-0.062929198145866394 0.155831992626190186 0.0110868997871875763
0.0122547997161746025 0.12606300413608551 0.029944099485874176
-0.0644057020545005798 0.167520001530647278 -0.035695098340511322
-0.0703490003943443298 0.172644004225730896 -0.037875000387430191
0.0113869998604059219 0.126451998949050903 0.0296315997838973999
0.0589129999279975891 0.0704919993877410889 0.0108657004311680794
0.0513940006494522095 0.0726568996906280518 0.00804396998137235641
-0.0386541001498699188 0.126131996512413025 0.0204051006585359573
-0.027755100280046463 0.121253997087478638 0.0258901994675397873
-0.0460219010710716248 0.166061997413635254 0.00401182007044553757
-0.00156342994887381792 0.130879998207092285 0.0191418994218111038
0.031231200322508812 0.117425002157688141 0.0012371699558570981
