ply
format ascii 1.0
element vertex 734
comment bunny_complete_2_est
property float x
property float y
property float z
end_header
0.441986531019210815 0.0779302045702934265 -0.358932971954345703
0.461050510406494141 0.11229860782623291 -0.331179499626159668
0.473545223474502563 0.111813604831695557 -0.330800533294677734
0.468517452478408813 0.112392604351043701 -0.331360816955566406
0.431984126567840576 0.100307606160640717 -0.340228676795959473
0.48208773136138916 0.0878796055912971497 -0.34509006142616272
0.46993294358253479 0.109040610492229462 -0.335788160562515259
0.47299569845199585 0.10882260650396347 -0.335574865341186523
0.44498094916343689 0.0234963074326515198 -0.350155085325241089
0.485603123903274536 0.0793226063251495361 -0.34603726863861084
0.478431731462478638 0.111000604927539825 -0.329954594373703003
0.435059249401092529 0.0837522074580192566 -0.346885174512863159
0.436141729354858398 0.0838671103119850159 -0.34703516960144043
0.437380343675613403 0.0841650068759918213 -0.347309678792953491
0.438477843999862671 0.084260106086730957 -0.3474159836769104
0.439536750316619873 0.0842818096280097961 -0.347438067197799683
0.440602123737335205 0.0842802077531814575 -0.347428560256958008
0.443303942680358887 0.0875136107206344604 -0.346823066473007202
0.441700935363769531 0.0843844041228294373 -0.347533583641052246
0.442837536334991455 0.0845544040203094482 -0.347711682319641113
0.465138375759124756 0.11787761002779007 -0.321163296699523926
0.466241121292114258 0.117898605763912201 -0.321252703666687012
0.467265278100967407 0.117866605520248413 -0.321198463439941406
0.468327313661575317 0.117847606539726257 -0.321209639310836792
0.469353586435317993 0.117816604673862457 -0.321158885955810547
0.444029152393341064 0.0847678035497665405 -0.34793168306350708
0.445211529731750488 0.084993608295917511 -0.348163872957229614
0.446373939514160156 0.0851629078388214111 -0.348364174365997314
0.447520732879638672 0.0854421034455299377 -0.348633885383605957
0.448592424392700195 0.0856077075004577637 -0.348782360553741455
0.449761539697647095 0.0857105106115341187 -0.348907679319381714
0.436155527830123901 0.10222160816192627 -0.338257879018783569
0.487325131893157959 0.0775310099124908447 -0.346147775650024414
0.449066638946533203 0.100613608956336975 -0.340631067752838135
0.466784954071044922 0.10514560341835022 -0.33957478404045105
0.41350284218788147 0.10755360871553421 -0.335745573043823242
0.485092848539352417 0.106570608913898468 -0.331146031618118286
0.462809503078460693 0.0783691033720970154 -0.357239276170730591
0.474592626094818115 0.0796521082520484924 -0.352424561977386475
0.475526750087738037 0.0794100090861320496 -0.352160364389419556
0.447112351655960083 0.101942606270313263 -0.340038567781448364
0.450942128896713257 0.0859653055667877197 -0.349165081977844238
0.427728027105331421 0.0226385071873664856 -0.353814780712127686
0.45203864574432373 0.0860560089349746704 -0.34925466775894165
0.468552619218826294 0.100477606058120728 -0.342535078525543213
0.453143030405044556 0.0861469060182571411 -0.349345773458480835
0.439645826816558838 0.0795856043696403503 -0.356626778841018677
0.446336925029754639 0.111505605280399323 -0.328086107969284058
0.459124654531478882 0.0815372094511985779 -0.356500059366226196
0.487687945365905762 0.0873793065547943115 -0.342577069997787476
0.454735428094863892 0.078115709125995636 -0.359015375375747681
0.453716933727264404 0.0781879052519798279 -0.359107762575149536
0.452693730592727661 0.0782595053315162659 -0.359200775623321533
0.451671451330184937 0.078335106372833252 -0.359289377927780151
0.404814928770065308 0.112140603363513947 -0.33047795295715332
0.508100748062133789 0.0462168082594871521 -0.32769620418548584
0.498032152652740479 0.0918026044964790344 -0.333276867866516113
0.482110947370529175 0.0999976098537445068 -0.338067680597305298
0.420651346445083618 0.0232438072562217712 -0.350328058004379272
0.437211036682128906 0.106262609362602234 -0.334497183561325073
0.454246193170547485 0.0862110033631324768 -0.349429577589035034
0.455307215452194214 0.0862489044666290283 -0.349446982145309448
0.408877044916152954 0.104715608060359955 -0.336728066205978394
0.410024940967559814 0.104859605431556702 -0.336892962455749512
0.456366509199142456 0.0862779095768928528 -0.349463462829589844
0.464278608560562134 0.109438605606555939 -0.334125161170959473
0.457430332899093628 0.0863274037837982178 -0.349485456943511963
0.462903797626495361 0.0846660062670707703 -0.351725876331329346
0.488458544015884399 0.0858049094676971436 -0.342904359102249146
0.476926535367965698 0.097228609025478363 -0.341062873601913452
0.458530694246292114 0.086388707160949707 -0.349562883377075195
0.394294947385787964 0.168852612376213074 -0.379192769527435303
0.459518522024154663 0.0862172096967697144 -0.349399983882904053
0.484852045774459839 0.0991626083850860596 -0.337157279253005981
0.437110036611557007 0.0979566052556037903 -0.341781258583068848
0.463892042636871338 0.0845526084303855896 -0.351585268974304199
0.464874118566513062 0.0843714103102684021 -0.351414680480957031
0.404521524906158447 0.0225494075566530228 -0.333027482032775879
0.460580825805664062 0.0862559080123901367 -0.34941786527633667
0.443007528781890869 0.0819586068391799927 -0.355029582977294922
0.415732741355895996 0.108755603432655334 -0.335028856992721558
0.514040112495422363 0.0537293069064617157 -0.323168814182281494
0.441817134618759155 0.0765454098582267761 -0.359518557786941528
0.452404141426086426 0.102985605597496033 -0.339174270629882812
0.496388226747512817 0.0947586074471473694 -0.332443207502365112
0.49553343653678894 0.0951466038823127747 -0.332859575748443604
0.498054236173629761 0.093816608190536499 -0.331415891647338867
0.463182419538497925 0.109323605895042419 -0.334002584218978882
0.461606472730636597 0.086196504533290863 -0.349344760179519653
0.487223833799362183 0.0945666059851646423 -0.338240683078765869
0.44242483377456665 0.109088607132434845 -0.331524074077606201
0.488642245531082153 0.0738878101110458374 -0.346353977918624878
0.462629258632659912 0.0861184075474739075 -0.349269866943359375
0.493734449148178101 0.0927896052598953247 -0.336341261863708496
0.499505430459976196 0.0732676088809967041 -0.339639484882354736
0.503474116325378418 0.0817862078547477722 -0.330574572086334229
0.502693116664886475 0.0822707042098045349 -0.331099569797515869
0.494485348463058472 0.0911636054515838623 -0.336610674858093262
0.445519238710403442 0.109929606318473816 -0.330431908369064331
0.451816946268081665 0.0827226042747497559 -0.355757474899291992
0.45452919602394104 0.102993607521057129 -0.339189678430557251
0.416446328163146973 0.104061603546142578 -0.338142871856689453
0.400465339422225952 0.102753609418869019 -0.33453407883644104
0.413457423448562622 0.106404609978199005 -0.336549371480941772
0.405756652355194092 0.123021610081195831 -0.328203946352005005
0.406565040349960327 0.122456610202789307 -0.327628731727600098
0.407404541969299316 0.122127607464790344 -0.327195614576339722
0.408297628164291382 0.121859610080718994 -0.326861351728439331
0.409240037202835083 0.121632605791091919 -0.326622843742370605
0.410163938999176025 0.121356606483459473 -0.32634010910987854
0.411004930734634399 0.120967604219913483 -0.325905829668045044
0.411801725625991821 0.120353609323501587 -0.325245976448059082
0.412588745355606079 0.119882605969905853 -0.324710935354232788
0.413356542587280273 0.119401603937149048 -0.324170976877212524
0.414085745811462402 0.11868460476398468 -0.32337796688079834
0.414840638637542725 0.118093609809875488 -0.322718769311904907
0.415607631206512451 0.117549605667591095 -0.322120755910873413
0.416365236043930054 0.11701560765504837 -0.321532011032104492
0.417267024517059326 0.116646610200405121 -0.321136355400085449
0.418199628591537476 0.11638360470533371 -0.320890307426452637
0.463611364364624023 0.0859663039445877075 -0.349110871553421021
0.464562416076660156 0.0857480093836784363 -0.348930776119232178
0.465565413236618042 0.0856036096811294556 -0.348775982856750488
0.490563333034515381 0.0693643093109130859 -0.345650970935821533
0.489803433418273926 0.0699075087904930115 -0.346249669790267944
0.48902595043182373 0.0705174058675765991 -0.346858561038970947
0.488215029239654541 0.0709821060299873352 -0.34736517071723938
0.487354844808578491 0.0714296102523803711 -0.347799867391586304
0.486517846584320068 0.0718811079859733582 -0.34826168417930603
0.485624223947525024 0.0721699073910713196 -0.348644882440567017
0.484743624925613403 0.0725624039769172668 -0.348984360694885254
0.482979148626327515 0.0732477083802223206 -0.349722862243652344
0.482110530138015747 0.0736279040575027466 -0.350117683410644531
0.481280535459518433 0.0740844085812568665 -0.350598067045211792
0.5097503662109375 0.0556237064301967621 -0.32113039493560791
0.473918825387954712 0.105588607490062714 -0.338077157735824585
0.466554790735244751 0.0854775086045265198 -0.348623663187026978
0.44761243462562561 0.0227398071438074112 -0.349113881587982178
0.467513144016265869 0.0853173062205314636 -0.348411679267883301
0.444367438554763794 0.0875266045331954956 -0.346825569868087769
0.504260361194610596 0.0488407053053379059 -0.326409727334976196
0.473635643720626831 0.0878566056489944458 -0.345080286264419556
0.494410723447799683 0.0838940069079399109 -0.338864266872406006
0.468538671731948853 0.0852581039071083069 -0.348342061042785645
0.445429325103759766 0.0875356048345565796 -0.346828162670135498
0.444867551326751709 0.114549607038497925 -0.319193929433822632
0.446494936943054199 0.08752460777759552 -0.346789270639419556
0.447264224290847778 0.115079604089260101 -0.31983146071434021
0.448442041873931885 0.115323610603809357 -0.32011336088180542
0.449619650840759277 0.115554608404636383 -0.320389866828918457
0.450840026140213013 0.115846604108810425 -0.320748209953308105
0.451977252960205078 0.116017609834671021 -0.320944845676422119
0.453115224838256836 0.116178609430789948 -0.321137607097625732
0.454347282648086548 0.116430610418319702 -0.321483701467514038
0.455480903387069702 0.116609610617160797 -0.32168269157409668
0.456575214862823486 0.116736605763435364 -0.32180216908454895
0.457718968391418457 0.116872608661651611 -0.32198449969291687
0.458862364292144775 0.11701260507106781 -0.322174400091171265
0.459961980581283569 0.117111608386039734 -0.322286218404769897
0.461062252521514893 0.117190606892108917 -0.322390913963317871
0.462166488170623779 0.117258608341217041 -0.322494536638259888
0.463268786668777466 0.117322608828544617 -0.322593599557876587
0.464327454566955566 0.117355607450008392 -0.322625100612640381
0.465433657169342041 0.117397606372833252 -0.322717159986495972
0.466496914625167847 0.117396607995033264 -0.322735071182250977
0.467519164085388184 0.117364607751369476 -0.322686165571212769
0.468581795692443848 0.117351606488227844 -0.322699397802352905
0.469607114791870117 0.117279604077339172 -0.322630614042282104
0.470632642507553101 0.117219604551792145 -0.322569966316223145
0.471621245145797729 0.117083609104156494 -0.322423785924911499
0.472639352083206177 0.116969607770442963 -0.32234230637550354
0.473596036434173584 0.116819605231285095 -0.322131216526031494
0.474582940340042114 0.116665609180927277 -0.321974635124206543
0.469516485929489136 0.0850853100419044495 -0.348171770572662354
0.4705047607421875 0.0849635079503059387 -0.348029077053070068
0.471445679664611816 0.0847043097019195557 -0.347770869731903076
0.472431719303131104 0.0845790058374404907 -0.347625672817230225
0.507639646530151367 0.054682508111000061 -0.322144120931625366
0.473418742418289185 0.0844414085149765015 -0.347473978996276855
0.492003142833709717 0.0512563064694404602 -0.3431415855884552
0.420586943626403809 0.103840604424476624 -0.33790355920791626
0.4791240394115448 0.0821671038866043091 -0.34705507755279541
0.482218235731124878 0.109145604074001312 -0.329921722412109375
0.476404845714569092 0.0790437087416648865 -0.351779580116271973
0.477298825979232788 0.0787278041243553162 -0.351440757513046265
0.465895295143127441 0.0842996090650558472 -0.35133776068687439
0.426412850618362427 0.0220981072634458542 -0.353289276361465454
0.496850341558456421 0.0814261063933372498 -0.338236182928085327
0.459118247032165527 0.0835510045289993286 -0.354561060667037964
0.491625934839248657 0.0897716060280799866 -0.339144885540008545
0.482297927141189575 0.0750058069825172424 -0.349550068378448486
0.429020345211029053 0.0306946076452732086 -0.351472586393356323
0.449778228998184204 0.0959196090698242188 -0.343657374382019043
0.491136431694030762 0.0858488082885742188 -0.340929180383682251
0.496849238872528076 0.0824463069438934326 -0.337317675352096558
0.501736819744110107 0.0795571058988571167 -0.33423575758934021
0.448021441698074341 0.0996306091547012329 -0.34158596396446228
0.450647532939910889 0.0784089043736457825 -0.359377562999725342
0.449657350778579712 0.0785196051001548767 -0.359479367733001709
0.509214639663696289 0.0463051088154315948 -0.327774137258529663
0.510287165641784668 0.0463311076164245605 -0.327802211046218872
0.5113181471824646 0.0462717078626155853 -0.327737718820571899
0.464301258325576782 0.0882416069507598877 -0.345516979694366455
0.426733732223510742 0.105460606515407562 -0.335599273443222046
0.47440493106842041 0.0842977091670036316 -0.347320884466171265
0.491233527660369873 0.0517255067825317383 -0.343696862459182739
0.483167350292205811 0.0939096063375473022 -0.339551180601119995
0.447437644004821777 0.0873147100210189819 -0.34657856822013855
0.452463537454605103 0.090945608913898468 -0.346425473690032959
0.495565325021743774 0.0962336063385009766 -0.332024604082107544
0.490191549062728882 0.0850482061505317688 -0.342091560363769531
0.417840033769607544 0.0985336080193519592 -0.340309858322143555
0.393395751714706421 0.168046608567237854 -0.380222082138061523
0.394572734832763672 0.168372601270675659 -0.38071596622467041
0.404291838407516479 0.0518263056874275208 -0.29091036319732666
0.475384950637817383 0.084148705005645752 -0.3471565842628479
0.476399838924407959 0.0839298069477081299 -0.346931159496307373
0.481111347675323486 0.111030608415603638 -0.327966362237930298
0.464345067739486694 0.108515605330467224 -0.335151165723800659
0.412770450115203857 0.0243155062198638916 -0.334708958864212036
0.410508424043655396 0.0241460073739290237 -0.334629684686660767
0.408733248710632324 0.103454604744911194 -0.337421268224716187
0.448415249586105347 0.0757798105478286743 -0.360773861408233643
0.422038137912750244 0.108651608228683472 -0.334967762231826782
0.495927542448043823 0.102835610508918762 -0.32306477427482605
0.43118363618850708 0.110823608934879303 -0.327206879854202271
0.479654431343078613 0.105385608971118927 -0.335876286029815674
0.485198527574539185 0.103805609047412872 -0.334185868501663208
0.427540630102157593 0.0978626087307929993 -0.341643363237380981
0.448787152767181396 0.0889366045594215393 -0.346322864294052124
0.429918736219406128 0.0227865073829889297 -0.353755980730056763
0.428812950849533081 0.101383604109287262 -0.33935508131980896
0.500257253646850586 0.0888746082782745361 -0.332145780324935913
0.467671304941177368 0.109768606722354889 -0.334541171789169312
0.466880291700363159 0.0841715037822723389 -0.351187974214553833
0.442802727222442627 0.102799609303474426 -0.338919669389724731
0.439395934343338013 0.0810281038284301758 -0.354094773530960083
0.504259645938873291 0.0811931043863296509 -0.329937517642974854
0.492743730545043945 0.0919126048684120178 -0.337409675121307373
0.493646144866943359 0.0916106104850769043 -0.337081581354141235
0.483657240867614746 0.110782608389854431 -0.325691550970077515
0.51695561408996582 0.0532167069613933563 -0.322615921497344971
0.455635517835617065 0.103040605783462524 -0.339244157075881958
0.41534993052482605 0.103945605456829071 -0.337984383106231689
0.401776343584060669 0.103198610246181488 -0.335023581981658936
0.412360936403274536 0.106307603418827057 -0.336435467004776001
0.405501633882522583 0.121533609926700592 -0.328588306903839111
0.406371235847473145 0.121216610074043274 -0.328193575143814087
0.407273948192596436 0.120915606617927551 -0.327863901853561401
0.408195644617080688 0.120628610253334045 -0.327567845582962036
0.409138739109039307 0.120402604341506958 -0.327325612306594849
0.4100494384765625 0.120111607015132904 -0.327009350061416626
0.410894125699996948 0.119723610579967499 -0.326571017503738403
0.411678045988082886 0.119148604571819305 -0.325949639081954956
0.412438839673995972 0.118609607219696045 -0.325340569019317627
0.413235634565353394 0.118038609623908997 -0.324719518423080444
0.414013534784317017 0.117512606084346771 -0.324127644300460815
0.414821624755859375 0.11708860844373703 -0.323670893907546997
0.415593534708023071 0.116566605865955353 -0.323133200407028198
0.416550427675247192 0.116300605237483978 -0.322798818349838257
0.41751253604888916 0.116083607077598572 -0.322621017694473267
0.418503642082214355 0.115917608141899109 -0.322472512722015381
0.419501543045043945 0.115773610770702362 -0.322326630353927612
0.420528531074523926 0.115686610341072083 -0.322258532047271729
0.477278143167495728 0.0837122052907943726 -0.346704870462417603
0.493908852338790894 0.0685936063528060913 -0.342821866273880005
0.44842064380645752 0.0871860086917877197 -0.346453458070755005
0.493660837411880493 0.103642605245113373 -0.325986653566360474
0.430381149053573608 0.11032760888338089 -0.328689694404602051
0.429491043090820312 0.110652610659599304 -0.329064786434173584
0.449480026960372925 0.0872036069631576538 -0.346478462219238281
0.426788449287414551 0.0359569080173969269 -0.336633682250976562
0.415095537900924683 0.102474607527256012 -0.338462263345718384
0.452580749988555908 0.108281604945659637 -0.334806859493255615
0.479257136583328247 0.111543610692024231 -0.328522562980651855
0.478241026401519775 0.0835241079330444336 -0.346502065658569336
0.480443626642227173 0.0745402052998542786 -0.351071566343307495
0.479633152484893799 0.0750072076916694641 -0.351578980684280396
0.478783249855041504 0.0754545107483863831 -0.352032661437988281
0.477936625480651855 0.0759006068110466003 -0.35247686505317688
0.477078527212142944 0.0762839093804359436 -0.352882057428359985
0.511917531490325928 0.0536505058407783508 -0.323099911212921143
0.446053743362426758 0.0999206081032752991 -0.341895580291748047
0.479227125644683838 0.0833843052387237549 -0.346363365650177002
0.441651344299316406 0.113534606993198395 -0.320038110017776489
0.442831248044967651 0.113765604794025421 -0.320314735174179077
0.444010645151138306 0.113990604877471924 -0.320591479539871216
0.445198535919189453 0.114185608923435211 -0.320856332778930664
0.446373343467712402 0.114437609910964966 -0.321140170097351074
0.447549045085906982 0.114675603806972504 -0.32141721248626709
0.448776125907897949 0.114960603415966034 -0.321772009134292603
0.449899345636367798 0.115165606141090393 -0.321977555751800537
0.451131343841552734 0.115431606769561768 -0.322328448295593262
0.452316135168075562 0.115641608834266663 -0.322599440813064575
0.45345035195350647 0.115816608071327209 -0.322793692350387573
0.454635411500930786 0.116026610136032104 -0.323063880205154419
0.455770969390869141 0.116200603544712067 -0.323262035846710205
0.456910043954849243 0.116367608308792114 -0.323453575372695923
0.45801207423210144 0.116443604230880737 -0.323558986186981201
0.459114700555801392 0.116518609225749969 -0.323664605617523193
0.460214614868164062 0.116611607372760773 -0.323772549629211426
0.461317270994186401 0.116678610444068909 -0.32387465238571167
0.46238216757774353 0.116700604557991028 -0.323902159929275513
0.463440269231796265 0.116726607084274292 -0.323933005332946777
0.46454659104347229 0.116778604686260223 -0.32402464747428894
0.465607583522796631 0.116791605949401855 -0.324048817157745361
0.466671496629714966 0.116795606911182404 -0.32406732439994812
0.467735022306442261 0.116784609854221344 -0.324082463979721069
0.468798428773880005 0.116762608289718628 -0.324090540409088135
0.469820320606231689 0.116694606840610504 -0.324026644229888916
0.470847338438034058 0.116641603410243988 -0.323967218399047852
0.471834748983383179 0.116495609283447266 -0.323815703392028809
0.472819983959197998 0.116351604461669922 -0.3236655592918396
0.473807036876678467 0.116213604807853699 -0.323517322540283203
0.474792242050170898 0.116058610379695892 -0.323362201452255249
0.475742638111114502 0.115855604410171509 -0.323133319616317749
0.476712435483932495 0.115650609135627747 -0.322959184646606445
0.477624952793121338 0.115377604961395264 -0.322645276784896851
0.478566735982894897 0.115141607820987701 -0.322403639554977417
0.480241537094116211 0.0832977071404457092 -0.346258968114852905
0.481235235929489136 0.0831665098667144775 -0.346138060092926025
0.482221752405166626 0.0830183103680610657 -0.345982879400253296
0.483188033103942871 0.0828494057059288025 -0.345759481191635132
0.415716052055358887 0.107703603804111481 -0.335929960012435913
0.481545746326446533 0.0958936065435409546 -0.339649677276611328
0.444601237773895264 0.095104604959487915 -0.344775259494781494
0.445552825927734375 0.0949336066842079163 -0.344628274440765381
0.478171229362487793 0.0783522054553031921 -0.351045072078704834
0.478992938995361328 0.0778881087899208069 -0.350555181503295898
0.479834228754043579 0.0774415060877799988 -0.350089877843856812
0.436011135578155518 0.0234257075935602188 -0.352350771427154541
0.438220351934432983 0.101125605404376984 -0.339110285043716431
0.466668069362640381 0.106885604560375214 -0.337444871664047241
0.440102726221084595 0.0935706049203872681 -0.345163881778717041
0.484079629182815552 0.0824971050024032593 -0.345426380634307861
0.467895716428756714 0.0840719044208526611 -0.351099282503128052
0.468850165605545044 0.0838782042264938354 -0.35087546706199646
0.427722930908203125 0.108344607055187225 -0.332614868879318237
0.48943135142326355 0.099737606942653656 -0.333792656660079956
0.466988056898117065 0.0803353041410446167 -0.35518038272857666
0.474401652812957764 0.086312510073184967 -0.345454782247543335
0.448552936315536499 0.0784636065363883972 -0.359445065259933472
0.447492241859436035 0.0784192085266113281 -0.359395980834960938
0.446427732706069946 0.0784044042229652405 -0.359396785497665405
0.479477226734161377 0.103049606084823608 -0.337357282638549805
0.482348352670669556 0.102449603378772736 -0.336715966463088989
0.481410443782806396 0.102685607969760895 -0.336971074342727661
0.468302130699157715 0.0989936068654060364 -0.342928558588027954
0.485013753175735474 0.082261204719543457 -0.345154881477355957
0.39906233549118042 0.0319407060742378235 -0.323643684387207031
0.485957950353622437 0.0820407047867774963 -0.344915777444839478
0.486899852752685547 0.0818119049072265625 -0.344663769006729126
0.405439823865890503 0.107218608260154724 -0.333260178565979004
0.469792783260345459 0.0836472064256668091 -0.350633382797241211
0.487837553024291992 0.0815799087285995483 -0.344406574964523315
0.424520045518875122 0.0859858095645904541 -0.344819068908691406
0.488750725984573364 0.0812870040535926819 -0.344102263450622559
0.489660024642944336 0.0809869095683097839 -0.343784064054489136
0.450663238763809204 0.0874346047639846802 -0.34670567512512207
0.490535646677017212 0.0806216076016426086 -0.343402773141860962
0.491419523954391479 0.0802507102489471436 -0.343024462461471558
0.405734539031982422 0.0228696074336767197 -0.333334982395172119
0.411636233329772949 0.0241917073726654053 -0.334630280733108521
0.478561550378799438 0.103329606354236603 -0.337653964757919312
0.417784333229064941 0.106605604290962219 -0.336797565221786499
0.418845623731613159 0.106595605611801147 -0.33679237961769104
0.475931644439697266 0.107380606234073639 -0.33602297306060791
0.428664952516555786 0.109125606715679169 -0.3314170241355896
0.480595439672470093 0.105150610208511353 -0.335623681545257568
0.479213625192642212 0.0924676060676574707 -0.341993182897567749
0.488445132970809937 0.0786647051572799683 -0.345337063074111938
0.436000436544418335 0.099916607141494751 -0.339834272861480713
0.428601652383804321 0.111000604927539825 -0.329416662454605103
0.491894841194152832 0.0842177048325538635 -0.341207772493362427
0.499512523412704468 0.0894876047968864441 -0.33280608057975769
0.428677946329116821 0.108141608536243439 -0.332394659519195557
0.492275148630142212 0.0798618048429489136 -0.342601180076599121
0.462561428546905518 0.0961026102304458618 -0.343851476907730103
0.440616726875305176 0.0813546106219291687 -0.354434669017791748
0.490907251834869385 0.0924866050481796265 -0.338011473417282104
0.491827636957168579 0.0922056064009666443 -0.337718158960342407
0.488269835710525513 0.0955446064472198486 -0.337291181087493896
0.487297028303146362 0.0957036092877388 -0.33746686577796936
0.408807337284088135 0.111679606139659882 -0.32995295524597168
0.453188449144363403 0.0750575065612792969 -0.359926760196685791
0.414204329252243042 0.103814609348773956 -0.337851077318191528
0.459998071193695068 0.105317607522010803 -0.337697476148605347
0.411167651414871216 0.106109604239463806 -0.336213380098342896
0.405292630195617676 0.120124608278274536 -0.329083144664764404
0.406189441680908203 0.119822606444358826 -0.328734427690505981
0.407094746828079224 0.119525603950023651 -0.328409433364868164
0.408005833625793457 0.119233608245849609 -0.328092902898788452
0.408939331769943237 0.118998609483242035 -0.327820390462875366
0.40984874963760376 0.118703603744506836 -0.327504962682723999
0.410704344511032104 0.118268609046936035 -0.327048391103744507
0.411485433578491211 0.117797605693340302 -0.326486319303512573
0.412270635366439819 0.117270603775978088 -0.325900912284851074
0.41309782862663269 0.116820603609085083 -0.325410127639770508
0.41395154595375061 0.116432607173919678 -0.324987441301345825
0.414797335863113403 0.116165608167648315 -0.324605941772460938
0.415864944458007812 0.116008609533309937 -0.324539929628372192
0.416810750961303711 0.115780606865882874 -0.324297785758972168
0.417791128158569336 0.115594610571861267 -0.324137628078460693
0.418813049793243408 0.115487605333328247 -0.324062883853912354
0.419802039861679077 0.11535460501909256 -0.323914617300033569
0.420825034379959106 0.115255609154701233 -0.323840618133544922
0.42184603214263916 0.115175604820251465 -0.32377547025680542
0.422866553068161011 0.115070603787899017 -0.323697358369827271
0.423883527517318726 0.114961609244346619 -0.323621928691864014
0.493151634931564331 0.0794909074902534485 -0.342212170362472534
0.477112144231796265 0.0894726067781448364 -0.344789266586303711
0.478173941373825073 0.0894966050982475281 -0.344820380210876465
0.450088649988174438 0.100556604564189911 -0.340575575828552246
0.467724233865737915 0.108959607779979706 -0.335653066635131836
0.414613723754882812 0.107621610164642334 -0.335837364196777344
0.486012846231460571 0.106303609907627106 -0.330876290798187256
0.46112099289894104 0.106416605412960052 -0.336884468793869019
0.482454031705856323 0.09559660404920578 -0.339333385229110718
0.477293044328689575 0.0827368050813674927 -0.347659081220626831
0.49404674768447876 0.0791813060641288757 -0.341872572898864746
0.49495244026184082 0.0788813084363937378 -0.34155118465423584
0.49583473801612854 0.0785108059644699097 -0.341170072555541992
0.496627539396286011 0.0780301094055175781 -0.340633481740951538
0.466217547655105591 0.0868468061089515686 -0.346041172742843628
0.497451633214950562 0.0775158107280731201 -0.340112686157226562
0.440851837396621704 0.11298360675573349 -0.321507781744003296
0.441988229751586914 0.113151609897613525 -0.321698248386383057
0.443124443292617798 0.113326609134674072 -0.321894824504852295
0.444307148456573486 0.113537609577178955 -0.322163999080657959
0.445440024137496948 0.113722607493400574 -0.322362780570983887
0.446671634912490845 0.113988608121871948 -0.322711139917373657
0.447845548391342163 0.114239610731601715 -0.32299378514289856
0.449064552783966064 0.114540606737136841 -0.323350131511688232
0.450235426425933838 0.114801608026027679 -0.323635727167129517
0.45142713189125061 0.114987604320049286 -0.323898553848266602
0.452607542276382446 0.115212604403495789 -0.324171364307403564
0.453791052103042603 0.115429610013961792 -0.324445545673370361
0.454930603504180908 0.115576609969139099 -0.324631720781326294
0.456068843603134155 0.115752607583999634 -0.324825316667556763
0.457204937934875488 0.115925610065460205 -0.325021952390670776
0.45830652117729187 0.115998603403568268 -0.325124591588973999
0.459411412477493286 0.116046607494354248 -0.325215548276901245
0.460469722747802734 0.116079606115818024 -0.325244814157485962
0.461533665657043457 0.116081610321998596 -0.325265020132064819
0.462555855512619019 0.11605360358953476 -0.325218409299850464
0.4636191725730896 0.116057604551315308 -0.325238168239593506
0.464680701494216919 0.11605960875749588 -0.325256526470184326
0.465741962194442749 0.116075605154037476 -0.325283199548721313
0.466848194599151611 0.116111606359481812 -0.3253650963306427
0.467912346124649048 0.116130605340003967 -0.325391858816146851
0.46897396445274353 0.116139605641365051 -0.325411945581436157
0.470000356435775757 0.116083607077598572 -0.325351148843765259
0.471024781465530396 0.115995608270168304 -0.325278908014297485
0.472009152173995972 0.115850605070590973 -0.325124680995941162
0.473023891448974609 0.11571861058473587 -0.325035512447357178
0.473981350660324097 0.115547604858875275 -0.324819058179855347
0.474963247776031494 0.115389607846736908 -0.324664384126663208
0.475912928581237793 0.115184605121612549 -0.324432939291000366
0.476857751607894897 0.114955604076385498 -0.324193507432937622
0.477800846099853516 0.114724606275558472 -0.323953181505203247
0.478714823722839355 0.114449605345726013 -0.323640227317810059
0.479655444622039795 0.114213608205318451 -0.323396265506744385
0.48055914044380188 0.113907605409622192 -0.323071867227554321
0.481467247009277344 0.11361260712146759 -0.322748184204101562
0.48237234354019165 0.113309606909751892 -0.322425305843353271
0.498302936553955078 0.0770708099007606506 -0.339653462171554565
0.499138146638870239 0.0766746103763580322 -0.339214175939559937
0.499934732913970947 0.0761430040001869202 -0.338651180267333984
0.485069423913955688 0.0904906094074249268 -0.341880470514297485
0.399253726005554199 0.101354606449604034 -0.335058867931365967
0.444909632205963135 0.0906026065349578857 -0.346020281314849854
0.464210540056228638 0.094174608588218689 -0.343818068504333496
0.480737626552581787 0.0771378055214881897 -0.349765360355377197
0.481614530086517334 0.0767648071050643921 -0.349377661943435669
0.493119627237319946 0.0996536090970039368 -0.331706255674362183
0.481925249099731445 0.0986446067690849304 -0.338594377040863037
0.500692665576934814 0.0754670053720474243 -0.33796265721321106
0.493797630071640015 0.0335038080811500549 -0.329265952110290527
0.488536238670349121 0.086983904242515564 -0.342141181230545044
0.49196624755859375 0.0853919088840484619 -0.340444564819335938
0.497697323560714722 0.0820096060633659363 -0.336851358413696289
0.444690942764282227 0.106369607150554657 -0.334675371646881104
0.442526549100875854 0.108293607831001282 -0.332681715488433838
0.411230951547622681 0.109224610030651093 -0.333454668521881104
0.442546427249908447 0.10734160989522934 -0.333678364753723145
0.407671630382537842 0.109502606093883514 -0.33165132999420166
0.445321232080459595 0.0783347040414810181 -0.359337270259857178
0.43837323784828186 0.0770126059651374817 -0.358021259307861328
0.414696633815765381 0.109762609004974365 -0.334081083536148071
0.411169350147247314 0.110144607722759247 -0.332390248775482178
0.405388951301574707 0.0288400072604417801 -0.331062674522399902
0.404171645641326904 0.0285375062376260757 -0.330774009227752686
0.455026805400848389 0.0817597061395645142 -0.356757074594497681
0.432154148817062378 0.024148106575012207 -0.353180885314941406
0.502302944660186768 0.0907276049256324768 -0.32606014609336853
0.422235429286956787 0.0238497070968151093 -0.350539267063140869
0.470736026763916016 0.0834159106016159058 -0.350387781858444214
0.493058532476425171 0.0689769089221954346 -0.343244880437850952
0.468036353588104248 0.0833551064133644104 -0.352328777313232422
0.474204152822494507 0.0236834064126014709 -0.345299273729324341
0.398109138011932373 0.167057603597640991 -0.383002370595932007
0.399076640605926514 0.166891604661941528 -0.382874757051467896
0.451805651187896729 0.0876046046614646912 -0.346883863210678101
0.506985664367675781 0.0554695054888725281 -0.322982996702194214
0.41390642523765564 0.0244397073984146118 -0.334799081087112427
0.427143752574920654 0.034324105829000473 -0.344823867082595825
0.403795927762985229 0.0255079064518213272 -0.331907093524932861
0.463266670703887939 0.0943966060876846313 -0.344055265188217163
0.489410430192947388 0.0513317063450813293 -0.345302373170852661
0.497738033533096313 0.0992786064743995667 -0.325255513191223145
0.482443928718566895 0.104625605046749115 -0.335067778825759888
0.453464627265930176 0.0989736095070838928 -0.342912167310714722
0.439317941665649414 0.099205605685710907 -0.341099470853805542
0.435016334056854248 0.100047610700130463 -0.339969873428344727
0.469797611236572266 0.103835605084896088 -0.340177774429321289
0.495168447494506836 0.0823157057166099548 -0.339181780815124512
0.479228734970092773 0.0934986099600791931 -0.341084957122802734
0.441191136837005615 0.109737604856491089 -0.330185592174530029
0.507840812206268311 0.0560752078890800476 -0.321579813957214355
0.489069342613220215 0.0930316075682640076 -0.338600456714630127
0.488122224807739258 0.093257606029510498 -0.338844776153564453
0.489979535341262817 0.092734605073928833 -0.338285058736801147
0.490148425102233887 0.0950566083192825317 -0.336776465177536011
0.489222735166549683 0.0953286066651344299 -0.337062358856201172
0.469076603651046753 0.0823197066783905029 -0.353226661682128906
0.481719344854354858 0.0780189037322998047 -0.348663061857223511
0.486724734306335449 0.0804585069417953491 -0.345231086015701294
0.413182735443115234 0.103871606290340424 -0.337899357080459595
0.461142390966415405 0.105457603931427002 -0.337859362363815308
0.410075932741165161 0.105994604527950287 -0.336077272891998291
0.438357442617416382 0.106396608054637909 -0.334663957357406616
0.43711543083190918 0.107076607644557953 -0.333340674638748169
0.479598432779312134 0.108253605663776398 -0.332969158887863159
0.502543210983276367 0.0790319070219993591 -0.333680868148803711
0.430551230907440186 0.108682610094547272 -0.330940902233123779
0.409457623958587646 0.117077603936195374 -0.327843278646469116
0.41042974591255188 0.116712607443332672 -0.327405363321304321
0.411242842674255371 0.116264604032039642 -0.32687532901763916
0.412117451429367065 0.115987606346607208 -0.326513916254043579
0.413014352321624756 0.115735605359077454 -0.326208621263504028
0.414024442434310913 0.115546606481075287 -0.326066881418228149
0.415053635835647583 0.115474604070186615 -0.326006829738616943
0.41608545184135437 0.115423604846000671 -0.325955599546432495
0.417108148336410522 0.115352608263492584 -0.325888305902481079
0.418055027723312378 0.115130610764026642 -0.32565075159072876
0.419111251831054688 0.115077607333660126 -0.325654953718185425
0.420097142457962036 0.114929609000682831 -0.325502842664718628
0.421121150255203247 0.114840604364871979 -0.325429379940032959
0.422105252742767334 0.11469760537147522 -0.325277924537658691
0.423125028610229492 0.114590607583522797 -0.325199782848358154
0.424106836318969727 0.114445604383945465 -0.325048625469207764
0.425086647272109985 0.114305607974529266 -0.32489931583404541
0.409114927053451538 0.0222447067499160767 -0.334763765335083008
0.44203224778175354 0.0790970101952552795 -0.358156561851501465
0.513833522796630859 0.0502018071711063385 -0.32565799355506897
0.47449764609336853 0.0782360062003135681 -0.353125065565109253
0.44542163610458374 0.0795290097594261169 -0.358543962240219116
0.452906340360641479 0.0876916050910949707 -0.346969664096832275
0.460202276706695557 0.082578904926776886 -0.355560272932052612
0.486885935068130493 0.105939604341983795 -0.330476522445678711
0.508393228054046631 0.0592959076166152954 -0.320872664451599121
0.434403449296951294 0.11177361011505127 -0.322191774845123291
0.435474246740341187 0.111838608980178833 -0.322224229574203491
0.436528235673904419 0.11194060742855072 -0.322266489267349243
0.508990466594696045 0.0582942068576812744 -0.319837629795074463
0.509741425514221191 0.0577313080430030823 -0.319229215383529663
0.510799825191497803 0.057658907026052475 -0.319165796041488647
0.441145539283752441 0.112549610435962677 -0.3230857253074646
0.442281633615493774 0.112722605466842651 -0.323278158903121948
0.443417251110076904 0.11289660632610321 -0.323474258184432983
0.444611847400665283 0.11307360976934433 -0.323731094598770142
0.445743024349212646 0.113259606063365936 -0.323930591344833374
0.446870625019073486 0.113453604280948639 -0.324132412672042847
0.448095023632049561 0.113747604191303253 -0.324489474296569824
0.449321329593658447 0.11402660608291626 -0.324838072061538696
0.450494825839996338 0.114278607070446014 -0.325120627880096436
0.451721131801605225 0.114555604755878448 -0.32546764612197876
0.452901333570480347 0.114780604839324951 -0.325742036104202271
0.454040497541427612 0.114941604435443878 -0.325933218002319336
0.455225288867950439 0.11514560878276825 -0.326199561357498169
0.456317484378814697 0.115277610719203949 -0.326320350170135498
0.45746159553527832 0.11540260910987854 -0.326499283313751221
0.458562999963760376 0.115488603711128235 -0.326605379581451416
0.459624439477920532 0.115503609180450439 -0.326628684997558594
0.460687011480331421 0.115481607615947723 -0.326634109020233154
0.461710035800933838 0.11540260910987854 -0.326564222574234009
0.462733536958694458 0.115338608622550964 -0.326499700546264648
0.463755816221237183 0.115321606397628784 -0.326460361480712891
0.464816927909851074 0.115336604416370392 -0.326483935117721558
0.465921491384506226 0.115383610129356384 -0.326570630073547363
0.467025011777877808 0.115455605089664459 -0.326673507690429688
0.468084037303924561 0.115495607256889343 -0.326706886291503906
0.469151228666305542 0.115506604313850403 -0.326728731393814087
0.470175445079803467 0.11541660875082016 -0.326653033494949341
0.471198588609695435 0.115327604115009308 -0.326579898595809937
0.472186684608459473 0.115207605063915253 -0.326441079378128052
0.473167955875396729 0.115034610033035278 -0.326275408267974854
0.474122434854507446 0.114847607910633087 -0.326053261756896973
0.475100249052047729 0.11466660350561142 -0.325886130332946777
0.476048439741134644 0.114455610513687134 -0.325655370950698853
0.476992338895797729 0.114226609468460083 -0.32541319727897644
0.47793164849281311 0.113986603915691376 -0.325167089700698853
0.47885093092918396 0.113721609115600586 -0.324860811233520508
0.479786545038223267 0.113474607467651367 -0.324612587690353394
0.480699032545089722 0.113189607858657837 -0.324295908212661743
0.481604129076004028 0.112889610230922699 -0.323973596096038818
0.482515245676040649 0.112604610621929169 -0.323654383420944214
0.48342624306678772 0.112314604222774506 -0.323335140943527222
0.484319239854812622 0.11198560893535614 -0.322999060153961182
0.485185742378234863 0.111612610518932343 -0.322593092918395996
0.511831462383270264 0.0576464086771011353 -0.31913912296295166
0.435942530632019043 0.0987766087055206299 -0.340631365776062012
0.453968286514282227 0.087703607976436615 -0.346976667642593384
0.485595136880874634 0.109440609812736511 -0.326260238885879517
0.465464800596237183 0.100529603660106659 -0.342663764953613281
0.475424647331237793 0.112324610352516174 -0.329365760087966919
0.482485651969909668 0.0763890072703361511 -0.348986774682998657
0.483354628086090088 0.0760104060173034668 -0.348589062690734863
0.484218835830688477 0.0756273046135902405 -0.348184257745742798
0.519281566143035889 0.0505203083157539368 -0.321830213069915771
0.51850426197052002 0.0511164069175720215 -0.322435855865478516
0.517699718475341797 0.0515836067497730255 -0.322944462299346924
0.516849637031555176 0.0519753061234951019 -0.32336735725402832
0.50094151496887207 0.0800362080335617065 -0.334747463464736938
0.467810541391372681 0.105098605155944824 -0.339526861906051636
0.439436852931976318 0.105470605194568634 -0.335690081119537354
0.418905824422836304 0.107733607292175293 -0.335990279912948608
0.413528352975845337 0.108594603836536407 -0.334835559129714966
0.471723377704620361 0.0832799077033996582 -0.350242167711257935
0.489398032426834106 0.0986586064100265503 -0.33463558554649353
0.42474055290222168 0.104693606495857239 -0.336803466081619263
0.512931466102600098 0.0576700083911418915 -0.319183379411697388
0.431238651275634766 0.0309523064643144608 -0.351721256971359253
0.410281836986541748 0.0224754065275192261 -0.33497956395149231
0.502648413181304932 0.0812175050377845764 -0.331982284784317017
0.423226743936538696 0.0347560085356235504 -0.337001562118530273
0.492074638605117798 0.0680653080344200134 -0.344338178634643555
0.411896824836730957 0.0258849076926708221 -0.334318757057189941
0.424567550420761108 0.0246687065809965134 -0.351655185222625732
0.472671687602996826 0.0830633044242858887 -0.350006967782974243
0.49716612696647644 0.0911566093564033508 -0.334599077701568604
0.51403343677520752 0.0577507056295871735 -0.31926921010017395
0.397933036088943481 0.165602609515190125 -0.383366763591766357
0.398984432220458984 0.165707603096961975 -0.383510977029800415
0.399983346462249756 0.165630608797073364 -0.383447378873825073
0.400828927755355835 0.165235608816146851 -0.383073866367340088
0.515054941177368164 0.0577065087854862213 -0.319208920001983643
0.516076266765594482 0.057656407356262207 -0.319145858287811279
0.517093956470489502 0.057578306645154953 -0.319062173366546631
0.500895142555236816 0.0789735093712806702 -0.335623979568481445
0.434807449579238892 0.0273972079157829285 -0.35235518217086792
0.490212738513946533 0.0508663058280944824 -0.344796180725097656
0.480951428413391113 0.0805927067995071411 -0.34738457202911377
0.452311038970947266 0.099755607545375824 -0.341735869646072388
0.50841754674911499 0.0499304085969924927 -0.325390517711639404
0.43403393030166626 0.100183606147766113 -0.340113162994384766
0.433010339736938477 0.100265607237815857 -0.340204179286956787
0.497678548097610474 0.0810170099139213562 -0.33779558539390564
0.496365845203399658 0.0926626101136207581 -0.334204763174057007
0.41913294792175293 0.101049609482288361 -0.338967382907867432
0.494645446538925171 0.0935086086392402649 -0.33510628342628479
0.49375152587890625 0.0938216075301170349 -0.335446774959564209
0.492844045162200928 0.0941186100244522095 -0.335765570402145386
0.491956353187561035 0.0944436043500900269 -0.336116760969161987
0.491055339574813843 0.0947756096720695496 -0.336463779211044312
0.483911335468292236 0.0811544060707092285 -0.34600415825843811
0.454866707324981689 0.083491206169128418 -0.354525864124298096
0.47642284631729126 0.0942356064915657043 -0.341851264238357544
0.478200733661651611 0.0824392065405845642 -0.347340285778045654
0.412124425172805786 0.103841610252857208 -0.337849885225296021
0.462276995182037354 0.105639606714248657 -0.338061481714248657
0.408934950828552246 0.10583961009979248 -0.335902780294418335
0.439413636922836304 0.106442607939243317 -0.334708184003829956
0.436010837554931641 0.10699760913848877 -0.333242565393447876
0.480477124452590942 0.107907608151435852 -0.332611352205276489
0.466315180063247681 0.0880416035652160645 -0.34531247615814209
0.431566923856735229 0.1085796058177948 -0.33084985613822937
0.409235447645187378 0.115505605936050415 -0.328062564134597778
0.410135328769683838 0.115163609385490417 -0.327735990285873413
0.411083042621612549 0.114992603659629822 -0.327494919300079346
0.41210484504699707 0.114916607737541199 -0.327415138483047485
0.413119047880172729 0.114839605987071991 -0.327325046062469482
0.414174646139144897 0.114819608628749847 -0.327324420213699341
0.415198445320129395 0.114755608141422272 -0.327261894941329956
0.416302531957626343 0.114834606647491455 -0.327368468046188354
0.417367041110992432 0.114839605987071991 -0.32738262414932251
0.418351352214813232 0.114693604409694672 -0.327231377363204956
0.419372051954269409 0.114621609449386597 -0.32716706395149231
0.420397043228149414 0.114549607038497925 -0.327099829912185669
0.421377748250961304 0.114348605275154114 -0.326929152011871338
0.422359436750411987 0.114192605018615723 -0.326774030923843384
0.423343747854232788 0.114041604101657867 -0.326622545719146729
0.424358636140823364 0.113928608596324921 -0.32654118537902832
0.425337731838226318 0.113784603774547577 -0.326386570930480957
0.426276743412017822 0.113568603992462158 -0.326153337955474854
0.518078446388244629 0.0574474073946475983 -0.318918973207473755
0.519049167633056641 0.057285405695438385 -0.318747043609619141
0.428997337818145752 0.112704604864120483 -0.325196295976638794
0.429904729127883911 0.112397603690624237 -0.324868440628051758
0.430808424949645996 0.112084604799747467 -0.324543297290802002
0.416440248489379883 0.0278888065367937088 -0.334850460290908813
0.461195588111877441 0.0824729055166244507 -0.355440378189086914
0.420761048793792725 0.0233296062797307968 -0.349865764379501343
0.434699952602386475 0.111360609531402588 -0.323774874210357666
0.43581053614616394 0.111391603946685791 -0.323864966630935669
0.43687593936920166 0.111453607678413391 -0.323899626731872559
0.438016444444656372 0.111626610159873962 -0.324090898036956787
0.4391518235206604 0.111819609999656677 -0.324289947748184204
0.440280437469482422 0.11203061044216156 -0.324494123458862305
0.44141542911529541 0.112219609320163727 -0.324692636728286743
0.442565232515335083 0.112327605485916138 -0.324867457151412964
0.443713843822479248 0.112446606159210205 -0.325044453144073486
0.444860637187957764 0.112584605813026428 -0.325224936008453369
0.445999830961227417 0.112745605409145355 -0.325413405895233154
0.447136044502258301 0.112919606268405914 -0.325612723827362061
0.44831162691116333 0.113162606954574585 -0.325890243053436279
0.449528545141220093 0.113467603921890259 -0.326249808073043823
0.450696945190429688 0.113733604550361633 -0.326536625623703003
0.451924830675125122 0.114017605781555176 -0.326886594295501709
0.453107535839080811 0.114237606525421143 -0.327154070138931274
0.454250723123550415 0.114395603537559509 -0.327342301607131958
0.455430418252944946 0.11462460458278656 -0.327615320682525635
0.45656818151473999 0.114768609404563904 -0.327801793813705444
0.457674235105514526 0.114852607250213623 -0.327908635139465332
0.458736896514892578 0.114872604608535767 -0.327930808067321777
0.459800809621810913 0.114871606230735779 -0.327946782112121582
0.460861027240753174 0.114829607307910919 -0.32794111967086792
0.461847782135009766 0.114712603390216827 -0.327806562185287476
0.462832599878311157 0.114608608186244965 -0.327677279710769653
0.463855177164077759 0.114542603492736816 -0.327614128589630127
0.464955270290374756 0.114602610468864441 -0.327705800533294678
0.466059029102325439 0.11467260867357254 -0.32780417799949646
0.467155307531356812 0.114765606820583344 -0.327913910150527954
0.468263149261474609 0.114819608628749847 -0.328000187873840332
