ply
format ascii 1.0
element vertex 732
comment bunny_partial_est
property float x
property float y
property float z
end_header
0.384837150573730469 0.154221400618553162 -0.360207617282867432
0.419844150543212891 0.150320395827293396 -0.330031752586364746
0.392576456069946289 0.141596406698226929 -0.364136427640914917
0.446007072925567627 0.104126401245594025 -0.330981582403182983
0.433596879243850708 0.0498221032321453094 -0.348679423332214355
0.431198358535766602 0.0500677004456520081 -0.340666234493255615
0.494149953126907349 0.0816339030861854553 -0.337211638689041138
0.390742778778076172 0.0534049011766910553 -0.324682772159576416
0.386251479387283325 0.0537754036486148834 -0.316694647073745728
0.383903473615646362 0.0540465004742145538 -0.30866473913192749
0.407958060503005981 0.0732538998126983643 -0.343237936496734619
0.37231406569480896 0.13226240873336792 -0.303079128265380859
0.384655952453613281 0.154234409332275391 -0.361202716827392578
0.393751174211502075 0.0599861033260822296 -0.282845139503479004
0.385689258575439453 0.145915403962135315 -0.345152229070663452
0.487033367156982422 0.104396402835845947 -0.325620442628860474
0.433097958564758301 0.0512845031917095184 -0.347676515579223633
0.43039587140083313 0.0515344031155109406 -0.33969193696975708
0.446113854646682739 0.0932423993945121765 -0.341529518365859985
0.387016266584396362 0.0550345033407211304 -0.32368585467338562
0.383563250303268433 0.0554161034524440765 -0.315670520067214966
0.382827252149581909 0.0555020011961460114 -0.307668626308441162
0.426966160535812378 0.0734708011150360107 -0.34513971209526062
0.37232556939125061 0.132261395454406738 -0.302078515291213989
0.385583460330963135 0.150100395083427429 -0.351176530122756958
0.388106971979141235 0.137448400259017944 -0.338123917579650879
0.385478973388671875 0.145906403660774231 -0.346154928207397461
0.437773555517196655 0.0522506013512611389 -0.355718523263931274
0.432737261056900024 0.0527342036366462708 -0.347672134637832642
0.429832875728607178 0.0529428012669086456 -0.339731425046920776
0.481388270854949951 0.107760399580001831 -0.325225651264190674
0.385204970836639404 0.0565699003636837006 -0.323688894510269165
0.382352352142333984 0.0568556003272533417 -0.315679848194122314
0.382202059030532837 0.056894201785326004 -0.307676315307617188
0.475998371839523315 0.0727412998676300049 -0.351867526769638062
0.372113078832626343 0.130890399217605591 -0.302071034908294678
0.391373962163925171 0.14303240180015564 -0.359145134687423706
0.38649827241897583 0.141771405935287476 -0.335117518901824951
0.387496858835220337 0.145833402872085571 -0.353181928396224976
0.436872363090515137 0.0537343025207519531 -0.355733722448348999
0.432187557220458984 0.0541739016771316528 -0.347693413496017456
0.460555911064147949 0.0774502009153366089 -0.354874730110168457
0.48319166898727417 0.107141405344009399 -0.324568569660186768
0.383996576070785522 0.058023303747177124 -0.32369646430015564
0.381481170654296875 0.05825820192694664 -0.315690606832504272
0.381728768348693848 0.058291703462600708 -0.307685524225234985
0.46596333384513855 0.0729126036167144775 -0.355099022388458252
0.389638453722000122 0.130597397685050964 -0.337074726819992065
0.39199027419090271 0.138814404606819153 -0.362122118473052979
0.393523275852203369 0.140174403786659241 -0.369133532047271729
0.391617566347122192 0.141624405980110168 -0.35913512110710144
0.436193674802780151 0.0551912039518356323 -0.355783432722091675
0.43153265118598938 0.0556256026029586792 -0.347709715366363525
0.463879138231277466 0.0918084010481834412 -0.342011719942092896
0.460510313510894775 0.108477398753166199 -0.329856246709823608
0.383107364177703857 0.0594437010586261749 -0.323746234178543091
0.380307257175445557 0.0597452037036418915 -0.315702319145202637
0.381014168262481689 0.0596971027553081512 -0.307692915201187134
0.413988173007965088 0.0718200057744979858 -0.342935323715209961
0.372364073991775513 0.128165408968925476 -0.29806143045425415
0.380892276763916016 0.13479439914226532 -0.31698879599571228
0.393291354179382324 0.14017939567565918 -0.36813122034072876
0.391403079032897949 0.141629397869110107 -0.358132034540176392
0.464998632669448853 0.0989923998713493347 -0.339723527431488037
0.431618064641952515 0.0570081025362014771 -0.348735332489013672
0.459499776363372803 0.0833790004253387451 -0.345096737146377563
0.408258050680160522 0.10887639969587326 -0.327779114246368408
0.383012175559997559 0.0608127005398273468 -0.324713021516799927
0.379656672477722168 0.0610922016203403473 -0.31671518087387085
0.379366666078567505 0.061194002628326416 -0.308697521686553955
0.431968271732330322 0.0721518024802207947 -0.346391737461090088
0.374295562505722046 0.126752406358718872 -0.308034211397171021
0.503366470336914062 0.0879114046692848206 -0.321759998798370361
0.487219065427780151 0.102776400744915009 -0.327835023403167725
0.386777371168136597 0.136225402355194092 -0.328102409839630127
0.479574769735336304 0.0954644009470939636 -0.337951421737670898
0.432078957557678223 0.0584113039076328278 -0.350700139999389648
0.429156869649887085 0.0586865022778511047 -0.342699021100997925
0.423206567764282227 0.109062403440475464 -0.328077405691146851
0.38378635048866272 0.0620631016790866852 -0.326780200004577637
0.380091369152069092 0.0624325014650821686 -0.31869390606880188
0.378300458192825317 0.0626141056418418884 -0.310704827308654785
0.37856137752532959 0.0626497045159339905 -0.30272182822227478
0.381219059228897095 0.0624366030097007751 -0.294696122407913208
0.387555062770843506 0.129248395562171936 -0.327086687088012695
0.387710660696029663 0.14999040961265564 -0.360231727361679077
0.395645469427108765 0.142995402216911316 -0.376251518726348877
0.492509961128234863 0.0987054035067558289 -0.327439486980438232
0.432746469974517822 0.0597215034067630768 -0.353764832019805908
0.4295329749584198 0.0600473023951053619 -0.345710039138793945
0.479786962270736694 0.0978564023971557617 -0.336546331644058228
0.385897457599639893 0.0632119029760360718 -0.329853147268295288
0.381042063236236572 0.0637013018131256104 -0.321706146001815796
0.377812474966049194 0.063971102237701416 -0.313708752393722534
0.377367168664932251 0.0640574023127555847 -0.305717229843139648
0.380072653293609619 0.0638928040862083435 -0.297718614339828491
0.386257678270339966 0.126487404108047485 -0.325948834419250488
0.38446575403213501 0.134889408946037292 -0.321095764636993408
0.391746371984481812 0.140229403972625732 -0.359129130840301514
0.389726877212524414 0.151396408677101135 -0.364244014024734497
0.450098574161529541 0.0787068009376525879 -0.354224830865859985
0.430608272552490234 0.0613467022776603699 -0.348740637302398682
0.486473560333251953 0.0873694047331809998 -0.339290320873260498
0.388194352388381958 0.0644123032689094543 -0.332829326391220093
0.381422668695449829 0.0649586021900177002 -0.324755191802978516
0.378842264413833618 0.0652149021625518799 -0.316725105047225952
0.377107173204421997 0.0653936043381690979 -0.308717638254165649
0.37817615270614624 0.0653656050562858582 -0.300733029842376709
0.373950779438018799 0.11721840500831604 -0.28700101375579834
0.388126462697982788 0.0529303029179573059 -0.297278434038162231
0.450873762369155884 0.0882214009761810303 -0.344261527061462402
0.387191355228424072 0.136223405599594116 -0.331101864576339722
0.469068527221679688 0.0976833999156951904 -0.340326130390167236
0.431502163410186768 0.0626791045069694519 -0.351747423410415649
0.428484171628952026 0.0628997012972831726 -0.343895137310028076
0.389769375324249268 0.0656781047582626343 -0.335844516754150391
0.383083760738372803 0.0661905035376548767 -0.327781021595001221
0.378769874572753906 0.0665967985987663269 -0.319718331098556519
0.377350062131881714 0.066707901656627655 -0.311719536781311035
0.377287060022354126 0.0667410045862197876 -0.303728431463241577
0.379227966070175171 0.0666611045598983765 -0.295733213424682617
0.375069558620452881 0.1268434077501297 -0.288053810596466064
0.388946473598480225 0.137464404106140137 -0.340114712715148926
0.39104655385017395 0.137447401881217957 -0.357114017009735107
0.369932264089584351 0.110292404890060425 -0.304957836866378784
0.433518975973129272 0.0639274045825004578 -0.354782730340957642
0.429992556571960449 0.0642328038811683655 -0.346742123365402222
0.423137575387954712 0.100890405476093292 -0.335477620363235474
0.384525954723358154 0.0674404054880142212 -0.33078455924987793
0.378820270299911499 0.0678806006908416748 -0.32274097204208374
0.376684963703155518 0.0680700987577438354 -0.314736127853393555
0.376902759075164795 0.0681377053260803223 -0.306739211082458496
0.377684175968170166 0.0681087002158164978 -0.298746317625045776
0.372715860605239868 0.125375404953956604 -0.306026726961135864
0.377635478973388672 0.132174402475357056 -0.314004480838775635
0.379138469696044922 0.112748399376869202 -0.323866426944732666
0.388811767101287842 0.136155396699905396 -0.338115036487579346
0.50249779224395752 0.0892624035477638245 -0.321192473173141479
0.431000351905822754 0.065554402768611908 -0.349747925996780396
0.496031373739242554 0.0730781033635139465 -0.340142130851745605
0.386928170919418335 0.0686350017786026001 -0.333792835474014282
0.380375772714614868 0.0691125020384788513 -0.325757801532745361
0.376343965530395508 0.0694297999143600464 -0.31773725152015686
0.375553369522094727 0.0695511028170585632 -0.309742540121078491
0.376233756542205811 0.0695312023162841797 -0.301749438047409058
0.375295579433441162 0.128105401992797852 -0.311044514179229736
0.388289779424667358 0.129239395260810852 -0.32908216118812561
0.385608553886413574 0.14865739643573761 -0.356172829866409302
0.376066356897354126 0.134927406907081604 -0.297143518924713135
0.369888067245483398 0.107549399137496948 -0.305952519178390503
0.432268470525741577 0.0668634995818138123 -0.351764112710952759
0.455137550830841064 0.0882384032011032104 -0.344249218702316284
0.38855057954788208 0.0699005052447319031 -0.335728734731674194
0.382117271423339844 0.0703306049108505249 -0.327814668416976929
0.37694886326789856 0.0707236006855964661 -0.31973603367805481
0.375180065631866455 0.0708857029676437378 -0.311738133430480957
0.375185966491699219 0.0709324032068252563 -0.303750336170196533
0.372416466474533081 0.12403840571641922 -0.301045238971710205
0.3906821608543396 0.134644404053688049 -0.359099835157394409
0.389335364103317261 0.137530401349067688 -0.342120826244354248
0.391475677490234375 0.137438401579856873 -0.360119521617889404
0.443279355764389038 0.169306397438049316 -0.340285718441009521
0.433850377798080444 0.0681620985269546509 -0.353816330432891846
0.429083555936813354 0.0685300007462501526 -0.345792323350906372
0.429237574338912964 0.15902140736579895 -0.333196520805358887
0.383686661720275879 0.0715835019946098328 -0.329801797866821289
0.378008753061294556 0.0721374005079269409 -0.321762353181838989
0.374995052814483643 0.0722250044345855713 -0.313743501901626587
0.374666869640350342 0.0723099038004875183 -0.305759310722351074
0.376065164804458618 0.0722748041152954102 -0.297801315784454346
0.375326275825500488 0.125470399856567383 -0.285053610801696777
0.386304974555969238 0.134855404496192932 -0.326114118099212646
0.417680561542510986 0.147477403283119202 -0.32901427149772644
0.388333171606063843 0.141643404960632324 -0.346169829368591309
0.435386866331100464 0.0694608986377716064 -0.355842828750610352
0.431643068790435791 0.0697526037693023682 -0.347767829895019531
0.372841864824295044 0.0981764048337936401 -0.287882328033447266
0.385264456272125244 0.0728413015604019165 -0.331785023212432861
0.378607779741287231 0.0733647048473358154 -0.32378116250038147
0.375537663698196411 0.0735045000910758972 -0.315746217966079712
0.374181360006332397 0.0736467987298965454 -0.307764738798141479
0.374960452318191528 0.073648400604724884 -0.299778610467910767
0.38237917423248291 0.125188395380973816 -0.322023868560791016
0.388057857751846313 0.130630403757095337 -0.331082195043563843
0.486134856939315796 0.104708403348922729 -0.325949788093566895
0.38813355565071106 0.134779408574104309 -0.336101830005645752
0.439934760332107544 0.0792183056473731995 -0.346811234951019287
0.432666152715682983 0.0710913985967636108 -0.348770231008529663
0.376454472541809082 0.110098399221897125 -0.321941137313842773
0.38573107123374939 0.074176304042339325 -0.33280143141746521
0.378809064626693726 0.0746285989880561829 -0.324775636196136475
0.376253575086593628 0.0748253017663955688 -0.316746830940246582
0.374152272939682007 0.0749882012605667114 -0.308768928050994873
0.374405264854431152 0.0750232040882110596 -0.300785720348358154
0.389339357614517212 0.125082403421401978 -0.327966243028640747
0.373000979423522949 0.129496395587921143 -0.306065917015075684
0.393948972225189209 0.148625403642654419 -0.371193617582321167
0.387943357229232788 0.134781405329704285 -0.337097227573394775
0.385554969310760498 0.0933134034276008606 -0.32578045129776001
0.433750569820404053 0.0724628046154975891 -0.349789321422576904
0.377622067928314209 0.0991514027118682861 -0.319930076599121094
0.386557251214981079 0.075495205819606781 -0.333817511796951294
0.379439175128936768 0.0759489014744758606 -0.32576364278793335
0.434912264347076416 0.030383402481675148 -0.347429424524307251
0.454374760389328003 0.0777787044644355774 -0.355259627103805542
0.469389945268630981 0.0791250988841056824 -0.350562423467636108
0.488676667213439941 0.0804433003067970276 -0.341913014650344849
0.48615756630897522 0.0827599987387657166 -0.342362821102142334
0.489016562700271606 0.0972063988447189331 -0.331851333379745483
0.459367811679840088 0.102353401482105255 -0.335272133350372314
0.431877970695495605 0.105385400354862213 -0.32817426323890686
0.521216273307800293 0.05157490074634552 -0.317442119121551514
0.419797658920288086 0.0985724031925201416 -0.337057113647460938
0.492910474538803101 0.0711781010031700134 -0.342142432928085327
0.413961350917816162 0.0933994054794311523 -0.339792013168334961
0.493863672018051147 0.0781152024865150452 -0.339449018239974976
0.431119561195373535 0.0312178023159503937 -0.344150125980377197
0.456100910902023315 0.100187398493289948 -0.336944431066513062
0.470251530408859253 0.100917398929595947 -0.33781471848487854
0.498910665512084961 0.0755318999290466309 -0.336698234081268311
0.418252378702163696 0.103733405470848083 -0.334458619356155396
0.502050638198852539 0.0733275040984153748 -0.334363430738449097
0.427257061004638672 0.0996543988585472107 -0.336199730634689331
0.467062473297119141 0.0979054048657417297 -0.340565025806427002
0.434524357318878174 0.0198715012520551682 -0.351288139820098877
0.45629468560218811 0.102575398981571198 -0.335500329732894897
0.4903278648853302 0.0876203998923301697 -0.337570428848266602
0.44123685359954834 0.0767858028411865234 -0.35432511568069458
0.49314117431640625 0.100858405232429504 -0.32375800609588623
0.47729116678237915 0.103168405592441559 -0.334269523620605469
0.496856063604354858 0.0818167999386787415 -0.335347414016723633
0.518086254596710205 0.0413866005837917328 -0.323098212480545044
0.469226688146591187 0.101972401142120361 -0.33694922924041748
0.489614367485046387 0.0458656027913093567 -0.344315230846405029
0.447630077600479126 0.0718277990818023682 -0.359234333038330078
0.456203758716583252 0.0953674018383026123 -0.341819614171981812
0.426336973905563354 0.105983398854732513 -0.330828040838241577
0.432591855525970459 0.0309653021395206451 -0.34597313404083252
0.456367611885070801 0.0192934013903141022 -0.346141338348388672
0.490980058908462524 0.084792405366897583 -0.338563531637191772
0.519214272499084473 0.0548323020339012146 -0.314806163311004639
0.511201739311218262 0.0505907014012336731 -0.32052960991859436
0.465600639581680298 0.0828936025500297546 -0.344566434621810913
0.516519069671630859 0.050671502947807312 -0.320587277412414551
0.452602773904800415 0.0924624055624008179 -0.342704921960830688
0.450465172529220581 0.0813037008047103882 -0.348947137594223022
0.433694273233413696 0.0311163030564785004 -0.346104621887207031
0.428504079580307007 0.157397404313087463 -0.333844035863876343
0.440193057060241699 0.163501396775245667 -0.340890228748321533
0.456340938806533813 0.0795181021094322205 -0.353017330169677734
0.517496645450592041 0.050506003201007843 -0.320406079292297363
0.455891460180282593 0.0816273987293243408 -0.349247634410858154
0.471665859222412109 0.0823570042848587036 -0.343981623649597168
0.422258377075195312 0.102270402014255524 -0.334943830966949463
0.427029252052307129 0.155489400029182434 -0.333718836307525635
0.416263967752456665 0.0958233997225761414 -0.338139832019805908
0.45059657096862793 0.168070405721664429 -0.348097711801528931
0.448184669017791748 0.0809644013643264771 -0.3486042320728302
0.451650559902191162 0.0855443999171257019 -0.345341533422470093
0.398431569337844849 0.138516396284103394 -0.315568655729293823
0.418307870626449585 0.0956813991069793701 -0.33799213171005249
0.428145378828048706 0.0962923988699913025 -0.338678538799285889
0.427088767290115356 0.108373403549194336 -0.327365309000015259
0.403625965118408203 0.0267957020550966263 -0.327282249927520752
0.433197557926177979 0.102895401418209076 -0.331584721803665161
0.471773028373718262 0.0724977999925613403 -0.353643834590911865
0.495938271284103394 0.0901684015989303589 -0.332285135984420776
0.404890656471252441 0.13958740234375 -0.31911015510559082
0.478210866451263428 0.10388839989900589 -0.333052128553390503
0.455138146877288818 0.108399398624897003 -0.329696893692016602
0.473084241151809692 0.107203401625156403 -0.330592632293701172
0.452500671148300171 0.165857404470443726 -0.3497123122215271
0.440199166536331177 0.0818001031875610352 -0.345494925975799561
0.410341352224349976 0.108825400471687317 -0.327656060457229614
0.400042474269866943 0.13757440447807312 -0.318692564964294434
0.411299079656600952 0.14242340624332428 -0.324619829654693604
0.459332525730133057 0.0962804034352302551 -0.34079742431640625
0.482591152191162109 0.0900544002652168274 -0.338181227445602417
0.433904469013214111 0.0282764025032520294 -0.349441826343536377
0.445550054311752319 0.0819388031959533691 -0.345620721578598022
0.438655853271484375 0.0941354036331176758 -0.340449213981628418
0.443986564874649048 0.0851064026355743408 -0.345040321350097656
0.406229168176651001 0.138031408190727234 -0.321453303098678589
0.463731974363327026 0.0963684022426605225 -0.340849012136459351
0.444253772497177124 0.0957834050059318542 -0.340224236249923706
0.43628266453742981 0.0905923992395401001 -0.342722833156585693
0.454403221607208252 0.0827061012387275696 -0.346405833959579468
0.446561574935913086 0.0971114039421081543 -0.339634120464324951
0.452367156744003296 0.091075405478477478 -0.343258529901504517
0.399454563856124878 0.136474400758743286 -0.321522116661071777
0.481163650751113892 0.0934033989906311035 -0.337768822908401489
0.488352060317993164 0.0868953987956047058 -0.338796019554138184
0.437153160572052002 0.105355404317378998 -0.328180402517318726
0.417189478874206543 0.103731401264667511 -0.334447413682937622
0.457151293754577637 0.0931233987212181091 -0.343412011861801147
0.474870264530181885 0.0966114029288291931 -0.339203029870986938
0.451164275407791138 0.0787092000246047974 -0.354225814342498779
0.477387160062789917 0.0841984003782272339 -0.343887627124786377
0.463814973831176758 0.0825742036104202271 -0.346217721700668335
0.509036779403686523 0.0516080036759376526 -0.319537937641143799
0.491152852773666382 0.0861404016613960266 -0.337998420000076294
0.466593921184539795 0.0898964032530784607 -0.342007815837860107
0.463673323392868042 0.103497400879859924 -0.334523320198059082
0.46576458215713501 0.0821738988161087036 -0.345838218927383423
0.429294377565383911 0.0253194030374288559 -0.350639224052429199
0.423293650150299072 0.0312501005828380585 -0.333829015493392944
0.463922560214996338 0.0999194011092185974 -0.338712632656097412
0.432312250137329102 0.10221940279006958 -0.332892239093780518
0.473968654870986938 0.0979174003005027771 -0.338588029146194458
0.403080165386199951 0.13329140841960907 -0.322155386209487915
0.454924732446670532 0.0868084058165550232 -0.344735920429229736
0.486313164234161377 0.0840804055333137512 -0.341763228178024292
0.453847169876098633 0.07259339839220047 -0.357978731393814087
0.438575863838195801 0.0919793993234634399 -0.342185527086257935
0.488737255334854126 0.0926503986120223999 -0.334952026605606079
0.49603736400604248 0.0933504030108451843 -0.329697996377944946
0.483770757913589478 0.100348405539989471 -0.33324122428894043
0.426366567611694336 0.0300323013216257095 -0.343018919229507446
0.484580159187316895 0.0898094028234481812 -0.337898015975952148
0.476766079664230347 0.0809815004467964172 -0.344514131546020508
0.484907567501068115 0.0924414023756980896 -0.33673781156539917
0.469874352216720581 0.0849433988332748413 -0.342686235904693604
0.457427352666854858 0.108711399137973785 -0.330074697732925415
0.460431873798370361 0.104375399649143219 -0.333434730768203735
0.473962754011154175 0.0797084048390388489 -0.347175627946853638
0.435017168521881104 0.0270664021372795105 -0.350219637155532837
0.472062796354293823 0.107284404337406158 -0.330668449401855469
0.476179271936416626 0.100087404251098633 -0.336942315101623535
0.452954471111297607 0.10022040456533432 -0.33696281909942627
0.494384169578552246 0.094255402684211731 -0.330676347017288208
0.445693552494049072 0.107458405196666718 -0.326523154973983765
0.497687876224517822 0.0722210034728050232 -0.33919602632522583
0.472966521978378296 0.0849554017186164856 -0.34262511134147644
0.440886855125427246 0.0984344035387039185 -0.336977839469909668
0.472032427787780762 0.0800646021962165833 -0.347563624382019043
0.496603578329086304 0.0863903984427452087 -0.334240913391113281
0.4133644700050354 0.0973623991012573242 -0.337732911109924316
0.462473511695861816 0.106252402067184448 -0.331449419260025024
0.518505692481994629 0.0514340028166770935 -0.319342285394668579
0.49146425724029541 0.101731404662132263 -0.324723094701766968
0.49074205756187439 0.0984003990888595581 -0.329126209020614624
0.426811277866363525 0.0309474021196365356 -0.339768826961517334
0.480991363525390625 0.102117404341697693 -0.333146125078201294
0.403281658887863159 0.0228673014789819717 -0.329664856195449829
0.404540479183197021 0.129070401191711426 -0.323527783155441284
0.494637250900268555 0.076541900634765625 -0.33978503942489624
0.424844264984130859 0.0311604030430316925 -0.335860013961791992
0.458538740873336792 0.0845924019813537598 -0.344421535730361938
0.467737108469009399 0.083947405219078064 -0.343661040067672729
0.436435878276824951 0.0773681998252868652 -0.346944838762283325
0.425015062093734741 0.0973964035511016846 -0.337827235460281372
0.473408877849578857 0.102849401533603668 -0.335910230875015259
0.45122826099395752 0.0778001025319099426 -0.355299115180969238
0.480704575777053833 0.106515400111675262 -0.327891409397125244
0.448028773069381714 0.10494539886713028 -0.329855978488922119
0.402381777763366699 0.0253696013242006302 -0.327962011098861694
0.445862352848052979 0.0805470049381256104 -0.348177433013916016
0.42248186469078064 0.106729403138160706 -0.331616520881652832
0.384577363729476929 0.0594296008348464966 -0.293086230754852295
0.404312670230865479 0.127515405416488647 -0.323895514011383057
0.417053252458572388 0.0932364016771316528 -0.339415311813354492
0.489386051893234253 0.0444657020270824432 -0.344860315322875977
0.410480350255966187 0.104036405682563782 -0.332667618989944458
0.495138853788375854 0.0926794037222862244 -0.330978125333786011
0.432269155979156494 0.0185403022915124893 -0.351873636245727539
0.418812572956085205 0.0986934006214141846 -0.337157636880874634
0.417375952005386353 0.0188744012266397476 -0.33993983268737793
0.398104578256607056 0.163964405655860901 -0.380245625972747803
0.448436468839645386 0.0804660990834236145 -0.350083231925964355
0.456343084573745728 0.107672400772571564 -0.330939054489135742
0.472409904003143311 0.103974401950836182 -0.335121333599090576
0.450716376304626465 0.080807805061340332 -0.350424826145172119
0.471273750066757202 0.0776678025722503662 -0.351004719734191895
0.447154879570007324 0.0850604027509689331 -0.344900131225585938
0.461321800947189331 0.09502439945936203 -0.341459929943084717
0.406972974538803101 0.125607401132583618 -0.323778122663497925
0.498490571975708008 0.0888653993606567383 -0.330880403518676758
0.473352551460266113 0.105717405676841736 -0.333011329174041748
0.404841750860214233 0.0270875021815299988 -0.327579021453857422
0.435486763715744019 0.0971724018454551697 -0.337627530097961426
0.449757874011993408 0.100268401205539703 -0.337000727653503418
0.431926459074020386 0.0220941025763750076 -0.351575911045074463
0.516932964324951172 0.0442593023180961609 -0.324095010757446289
0.460466891527175903 0.0762516036629676819 -0.355651229619979858
0.452309370040893555 0.0768183022737503052 -0.35629311203956604
0.477871954441070557 0.107192404568195343 -0.328607320785522461
0.418311059474945068 0.10481639951467514 -0.333590537309646606
0.449061453342437744 0.0756722986698150635 -0.357145220041275024
0.466861099004745483 0.107470400631427765 -0.330828577280044556
0.516425490379333496 0.0545093007385730743 -0.316511422395706177
0.45504295825958252 0.0810365006327629089 -0.350628435611724854
0.406917959451675415 0.124492399394512177 -0.324584126472473145
0.420315355062484741 0.108671404421329498 -0.329637229442596436
0.445656865835189819 0.0782468020915985107 -0.353778630495071411
0.481721162796020508 0.104455403983592987 -0.32965618371963501
0.479040056467056274 0.105421401560306549 -0.330703169107437134
0.489728361368179321 0.0925163999199867249 -0.334810435771942139
0.492023378610610962 0.0609515011310577393 -0.34376642107963562
0.476890474557876587 0.107341401278972626 -0.328764110803604126
0.510002076625823975 0.0471873022615909576 -0.323124915361404419
0.517981469631195068 0.0462820008397102356 -0.322123795747756958
0.477999657392501831 0.106449402868747711 -0.329816669225692749
0.434133678674697876 0.0181157030165195465 -0.35133671760559082
0.485692679882049561 0.0726860985159873962 -0.345721125602722168
0.451231956481933594 0.0908994004130363464 -0.343060821294784546
0.479758977890014648 0.0694033056497573853 -0.350412338972091675
0.427647858858108521 0.0315933004021644592 -0.338325232267379761
0.438366472721099854 0.083370700478553772 -0.345142722129821777
0.409156650304794312 0.121861405670642853 -0.323626071214675903
0.415161371231079102 0.116976402699947357 -0.318223714828491211
0.514045536518096924 0.0436393022537231445 -0.325403451919555664
0.392547279596328735 0.0982774049043655396 -0.269815415143966675
0.490699559450149536 0.100308403372764587 -0.327170968055725098
0.472389429807662964 0.104928404092788696 -0.334150820970535278
0.512056946754455566 0.0450271032750606537 -0.324981570243835449
0.505482256412506104 0.0489523038268089294 -0.32493254542350769
0.500537693500518799 0.0765535011887550354 -0.333769530057907104
0.489293366670608521 0.0866613984107971191 -0.338548421859741211
0.431249350309371948 0.102207399904727936 -0.332872539758682251
0.482483357191085815 0.0777278989553451538 -0.345058917999267578
0.462270259857177734 0.0948144048452377319 -0.341243922710418701
0.436470270156860352 0.0970254018902778625 -0.337470322847366333
0.439847260713577271 0.0720740035176277161 -0.357560038566589355
0.435197651386260986 0.0935624018311500549 -0.339822620153427124
0.42523917555809021 0.102892398834228516 -0.333586722612380981
0.407505452632904053 0.121608398854732513 -0.325447916984558105
0.413856774568557739 0.117564402520656586 -0.320955574512481689
0.490717858076095581 0.0638329014182090759 -0.344552040100097656
0.410138368606567383 0.0216659028083086014 -0.332517832517623901
0.477156072854995728 0.105883404612541199 -0.331190884113311768
0.424004167318344116 0.0305232014507055283 -0.337304025888442993
0.480777263641357422 0.10566740483045578 -0.328990399837493896
0.412976354360580444 0.018841201439499855 -0.333800315856933594
0.463581681251525879 0.0781762003898620605 -0.35361713171005249
0.471278876066207886 0.0766694024205207825 -0.351977616548538208
0.442465364933013916 0.0761605054140090942 -0.355680614709854126
0.447594672441482544 0.100152403116226196 -0.336850613355636597
0.443514466285705566 0.080030098557472229 -0.34765961766242981
0.451890856027603149 0.100219398736953735 -0.336955517530441284
0.439751267433166504 0.0942364037036895752 -0.340562224388122559
0.42157745361328125 0.0958513990044593811 -0.338179439306259155
0.420327752828598022 0.0934114009141921997 -0.339619219303131104
0.495740264654159546 0.086769402027130127 -0.334651023149490356
0.408018261194229126 0.119479402899742126 -0.325151711702346802
0.414541870355606079 0.115798398852348328 -0.321037441492080688
0.492248475551605225 0.0626044049859046936 -0.34329831600189209
0.458355367183685303 0.0752216055989265442 -0.356603920459747314
0.513426244258880615 0.0517794005572795868 -0.319736212491989136
0.468928784132003784 0.10839640349149704 -0.329839766025543213
0.435470551252365112 0.0797559991478919983 -0.345364123582839966
0.443248867988586426 0.0805582031607627869 -0.34619063138961792
0.446785271167755127 0.0811666995286941528 -0.346843123435974121
0.41391417384147644 0.103557400405406952 -0.334224522113800049
0.452449977397918701 0.0820598006248474121 -0.347733616828918457
0.454128265380859375 0.0741917043924331665 -0.357586711645126343
0.437622368335723877 0.102266401052474976 -0.33297613263130188
0.463315129280090332 0.0806698054075241089 -0.350204825401306152
0.464303344488143921 0.0805564001202583313 -0.350064218044281006
0.452815473079681396 0.0989894047379493713 -0.337653219699859619
0.489053577184677124 0.0698916018009185791 -0.344832926988601685
0.452228277921676636 0.0787264034152030945 -0.354236423969268799
0.408708959817886353 0.117863401770591736 -0.325340300798416138
0.415251970291137695 0.11409740149974823 -0.321197718381881714
0.490974664688110352 0.0653681010007858276 -0.34412992000579834
0.483390450477600098 0.0692515000700950623 -0.34820181131362915
0.444778770208358765 0.0835304036736488342 -0.345304518938064575
0.447675555944442749 0.11108340322971344 -0.318310409784317017
0.456986546516418457 0.112740404903888702 -0.320281147956848145
0.465844988822937012 0.113401405513286591 -0.321196138858795166
0.474007368087768555 0.112823404371738434 -0.320610165596008301
0.492414474487304688 0.0472601018846035004 -0.341620534658432007
0.497261673212051392 0.0774299055337905884 -0.336715131998062134
0.502148151397705078 0.0755609050393104553 -0.332714736461639404
0.427145063877105713 0.101464405655860901 -0.334078222513198853
0.418251365423202515 0.0945373997092247009 -0.338788837194442749
0.41318175196647644 0.0203193016350269318 -0.33318793773651123
0.485609859228134155 0.099809400737285614 -0.332664817571640015
0.443214058876037598 0.098803400993347168 -0.337398618459701538
0.415761262178421021 0.0999494045972824097 -0.336463332176208496
0.410460770130157471 0.116115398705005646 -0.325488299131393433
0.416961759328842163 0.112304404377937317 -0.321277767419815063
0.494072169065475464 0.0996464043855667114 -0.32446560263633728
0.478652358055114746 0.0795278996229171753 -0.344981014728546143
0.479638457298278809 0.0793881043791770935 -0.344842314720153809
0.450310677289962769 0.111169405281543732 -0.320456504821777344
0.459526032209396362 0.112522400915622711 -0.3221435546875
0.468146324157714844 0.112788401544094086 -0.322561413049697876
0.476153969764709473 0.111859403550624847 -0.321612268686294556
0.41612735390663147 0.103707402944564819 -0.334408938884735107
0.438631653785705566 0.0971294045448303223 -0.337589234113693237
0.467399388551712036 0.0763391032814979553 -0.353659331798553467
0.468713432550430298 0.0949973985552787781 -0.341407537460327148
0.424931377172470093 0.0819896012544631958 -0.343298017978668213
0.478972852230072021 0.0993334054946899414 -0.336132913827896118
0.436411768198013306 0.0959203988313674927 -0.33831322193145752
0.491318553686141968 0.0884904041886329651 -0.336490422487258911
0.411578953266143799 0.102113403379917145 -0.334692329168319702
0.411896765232086182 0.11380140483379364 -0.32496526837348938
0.419224351644515991 0.111491404473781586 -0.32254183292388916
0.478585273027420044 0.0855004042387008667 -0.343299329280853271
0.49445807933807373 0.0751851052045822144 -0.340351521968841553
0.443535774946212769 0.109330400824546814 -0.320373803377151489
0.453018873929977417 0.111216403543949127 -0.322650313377380371
0.461944997310638428 0.112085402011871338 -0.323743999004364014
0.470411688089370728 0.112087398767471313 -0.323830127716064453
0.478212177753448486 0.11072840541601181 -0.322432130575180054
0.500346064567565918 0.0721468031406402588 -0.337130129337310791
0.482336550951004028 0.0946483984589576721 -0.337073326110839844
0.411642253398895264 0.105228401720523834 -0.33193361759185791
0.404582977294921875 0.0245413016527891159 -0.329252958297729492
0.47461545467376709 0.0196872018277645111 -0.343778222799301147
0.463677972555160522 0.09040040522813797 -0.34253421425819397
0.495579779148101807 0.0783195048570632935 -0.337660729885101318
0.489634066820144653 0.0913324058055877686 -0.335541337728500366
0.43752676248550415 0.103080399334430695 -0.331819623708724976
0.413425654172897339 0.111739404499530792 -0.324687570333480835
0.42153245210647583 0.110844403505325317 -0.323908329010009766
0.474908977746963501 0.0742398053407669067 -0.35160401463508606
0.43693956732749939 0.107944399118423462 -0.32074543833732605
0.446154356002807617 0.109263405203819275 -0.322409540414810181
0.45563662052154541 0.111149400472640991 -0.324678510427474976
0.464167147874832153 0.111325405538082123 -0.324939310550689697
0.472598016262054443 0.111211404204368591 -0.324920058250427246
0.480197876691818237 0.109478399157524109 -0.3230915367603302
0.436353862285614014 0.0947804003953933716 -0.339110314846038818
0.519692838191986084 0.0465241037309169769 -0.320309162139892578
0.41393965482711792 0.104598402976989746 -0.33331453800201416
0.423638075590133667 0.0307598020881414413 -0.33548051118850708
0.399395763874053955 0.161711394786834717 -0.381989926099777222
0.490624070167541504 0.0468701012432575226 -0.343275129795074463
0.4195442795753479 0.0970534011721611023 -0.337446331977844238
0.47683417797088623 0.090239405632019043 -0.340330213308334351
0.466726511716842651 0.0840454027056694031 -0.343791425228118896
0.415609776973724365 0.110759399831295013 -0.325740844011306763
0.423755079507827759 0.110045403242111206 -0.325101494789123535
0.431219756603240967 0.108088403940200806 -0.323022246360778809
0.439563155174255371 0.107823401689529419 -0.322768896818161011
0.448722958564758301 0.109166398644447327 -0.324369192123413086
0.458085566759109497 0.110856398940086365 -0.326387584209442139
0.46647036075592041 0.110676400363445282 -0.326283127069473267
0.474698454141616821 0.110164403915405273 -0.325821042060852051
0.482153177261352539 0.108173400163650513 -0.323675692081451416
0.478608071804046631 0.0754512995481491089 -0.348654717206954956
0.4871978759765625 0.0705536007881164551 -0.345467031002044678
0.474239379167556763 0.106377400457859039 -0.331721633672714233
0.521195173263549805 0.0525507032871246338 -0.316438823938369751
0.422467350959777832 0.105713404715061188 -0.332552939653396606
0.407068073749542236 0.0175270028412342072 -0.33253893256187439
0.46761658787727356 0.0827160999178886414 -0.344375431537628174
0.408154666423797607 0.101636402308940887 -0.334141016006469727
0.410411477088928223 0.109952405095100403 -0.326871484518051147
0.418977558612823486 0.110111400485038757 -0.327119201421737671
0.426904678344726562 0.10899440199136734 -0.326035261154174805
0.456466168165206909 0.0836414024233818054 -0.34538191556930542
0.443278461694717407 0.107865400612354279 -0.324911206960678101
0.452553778886795044 0.109430402517318726 -0.326757490634918213
0.461374282836914062 0.11008240282535553 -0.3275909423828125
0.469873279333114624 0.110111400485038757 -0.327726989984512329
0.477609753608703613 0.10866740345954895 -0.32618752121925354
0.464191168546676636 0.0182480029761791229 -0.34449923038482666
0.456216543912887573 0.0181086026132106781 -0.345674425363540649
0.419944673776626587 0.0819258987903594971 -0.342774033546447754
0.415947258472442627 0.0819314047694206238 -0.343147128820419312
0.471201777458190918 0.0195006020367145538 -0.344378024339675903
0.463208109140396118 0.0195968020707368851 -0.345804333686828613
0.455200821161270142 0.0196561012417078018 -0.346489518880844116
0.41293606162071228 0.0819338038563728333 -0.343308538198471069
0.439190566539764404 0.0199658013880252838 -0.350297629833221436
0.410947263240814209 0.0804809033870697021 -0.343347221612930298
0.405893266201019287 0.0817940011620521545 -0.34127083420753479
0.396141260862350464 0.017247101292014122 -0.327047049999237061
0.475208073854446411 0.0208883024752140045 -0.343947529792785645
0.467198669910430908 0.0210387017577886581 -0.345679312944412231
0.459199100732803345 0.0210816022008657455 -0.346449613571166992
0.451189756393432617 0.0211574025452136993 -0.347401738166809082
0.443174451589584351 0.0213458016514778137 -0.349516123533248901
0.385906964540481567 0.105656400322914124 -0.327843695878982544
0.428715378046035767 0.141189396381378174 -0.332834631204605103
0.435632467269897461 0.159036397933959961 -0.338735312223434448
0.470899015665054321 0.0950174033641815186 -0.340996533632278442
0.380879074335098267 0.107010401785373688 -0.325480401515960693
0.39519345760345459 0.0187909025698900223 -0.32680240273475647
0.44365006685256958 0.150189399719238281 -0.339921534061431885
0.475206464529037476 0.0223370026797056198 -0.344083726406097412
0.467190176248550415 0.0224762018769979477 -0.345659524202346802
0.459192276000976562 0.0225594025105237961 -0.346810519695281982
0.451181262731552124 0.0226179026067256927 -0.347648322582244873
0.443187475204467773 0.0227820016443729401 -0.34972381591796875
0.409890055656433105 0.0889584049582481384 -0.34015241265296936
0.434651553630828857 0.148641407489776611 -0.337400525808334351
0.397822350263595581 0.1131134033203125 -0.330090314149856567
0.423595964908599854 0.150084406137466431 -0.332990318536758423
0.403266370296478271 0.0206391029059886932 -0.330277442932128906
0.395269870758056641 0.0202378015965223312 -0.326608419418334961
0.493222266435623169 0.0217945016920566559 -0.322948485612869263
0.44764295220375061 0.150208398699760437 -0.341201126575469971
0.476207762956619263 0.0237843021750450134 -0.344271212816238403
0.468185991048812866 0.0238828025758266449 -0.345283538103103638
0.46018943190574646 0.0239877030253410339 -0.346714437007904053
0.452186554670333862 0.0240416023880243301 -0.347588330507278442
0.444176256656646729 0.0242234021425247192 -0.349708020687103271
0.436174660921096802 0.0242922026664018631 -0.350694119930267334
0.428174465894699097 0.0242468025535345078 -0.350592315196990967
0.385024160146713257 0.0530733019113540649 -0.308644026517868042
0.412246257066726685 0.0223605018109083176 -0.332683026790618896
0.404281854629516602 0.0220738016068935394 -0.33023342490196228
0.396319866180419922 0.0217090025544166565 -0.326956063508987427
0.500187158584594727 0.0232754014432430267 -0.322257667779922485
0.492249459028244019 0.0232435017824172974 -0.324468821287155151
0.439660251140594482 0.150181397795677185 -0.33912813663482666
0.47619706392288208 0.0252951029688119888 -0.345029324293136597
0.468188226222991943 0.0253188014030456543 -0.345352739095687866
0.460185199975967407 0.025410803034901619 -0.346604615449905396
0.452183574438095093 0.0254636015743017197 -0.347484737634658813
0.444166570901870728 0.0256494022905826569 -0.349671632051467896
0.436171650886535645 0.0257062017917633057 -0.350581914186477661
0.47793617844581604 0.0836843997240066528 -0.343993425369262695
0.452593177556991577 0.161869406700134277 -0.350844025611877441
0.412246763706207275 0.023764902725815773 -0.332298725843429565
0.404252350330352783 0.0234791021794080734 -0.329659193754196167
0.396341174840927124 0.0230531021952629089 -0.326163381338119507
0.392168670892715454 0.0217103026807308197 -0.32050788402557373
0.496214568614959717 0.024907601997256279 -0.324870258569717407
0.400883257389068604 0.0888164043426513672 -0.33821222186088562
0.479203760623931885 0.0267405025660991669 -0.344909816980361938
0.471178263425827026 0.026798103004693985 -0.345751434564590454
0.463191419839859009 0.0267769023776054382 -0.346188127994537354
0.455175340175628662 0.0268363021314144135 -0.347364813089370728
0.447178453207015991 0.0269912015646696091 -0.348638832569122314
0.439168959856033325 0.0270866025239229202 -0.349856823682785034
0.396892577409744263 0.099970400333404541 -0.330437123775482178
0.403811275959014893 0.108686402440071106 -0.329304963350296021
0.415226757526397705 0.0252682026475667953 -0.332387536764144897
0.40724557638168335 0.0249738022685050964 -0.329932242631912231
0.399293959140777588 0.0246205013245344162 -0.327204912900924683
0.421621561050415039 0.147076398134231567 -0.331948727369308472
0.501186847686767578 0.0264265015721321106 -0.324981153011322021
0.493169158697128296 0.0266664028167724609 -0.32671472430229187
0.445641577243804932 0.150189399719238281 -0.340450435876846313
0.477179467678070068 0.0282970014959573746 -0.346011221408843994
0.469175517559051514 0.0283035021275281906 -0.346788614988327026
0.461171716451644897 0.0284609012305736542 -0.348647326231002808
0.453161954879760742 0.0285272020846605301 -0.349365025758743286
0.445166856050491333 0.0284464024007320404 -0.348906517028808594
0.437164962291717529 0.0284427013248205185 -0.349310517311096191
0.451611459255218506 0.153190404176712036 -0.345799624919891357
0.373193353414535522 0.0992494001984596252 -0.278557628393173218
0.413227677345275879 0.0266049019992351532 -0.331354618072509766
0.404878377914428711 0.0945704057812690735 -0.337465822696685791
0.430932551622390747 0.0834724009037017822 -0.343783736228942871
0.507296085357666016 0.0272895023226737976 -0.321275383234024048
0.499195456504821777 0.0280293021351099014 -0.326454907655715942
0.491268157958984375 0.0279559027403593063 -0.327776312828063965
0.482145369052886963 0.0295732021331787109 -0.343936413526535034
0.474172055721282959 0.0297521017491817474 -0.346694618463516235
0.466161578893661499 0.030004601925611496 -0.349546611309051514
0.458152353763580322 0.0301152020692825317 -0.35092201828956604
0.45015186071395874 0.0300813019275665283 -0.350757211446762085
0.4421500563621521 0.0298768021166324615 -0.348899722099304199
0.422940373420715332 0.0833666026592254639 -0.342718720436096191
0.419938564300537109 0.0833593010902404785 -0.342655211687088013
0.418197363615036011 0.0281847026199102402 -0.332191139459609985
0.410243570804595947 0.0278328023850917816 -0.329307228326797485
0.426594376564025879 0.151593402028083801 -0.334635019302368164
0.411924153566360474 0.0833607017993927002 -0.343034327030181885
0.505179286003112793 0.0293923020362854004 -0.325433492660522461
0.497183769941329956 0.0295656025409698486 -0.327199816703796387
0.407902359962463379 0.0832649990916252136 -0.341633528470993042
0.481157273054122925 0.0310796014964580536 -0.344726026058197021
0.473163574934005737 0.0313446037471294403 -0.348323613405227661
0.465148717164993286 0.0315916016697883606 -0.350914031267166138
0.457146376371383667 0.0316326022148132324 -0.351652026176452637
0.449140161275863647 0.0315627008676528931 -0.351552128791809082
0.441157162189483643 0.0312949009239673615 -0.348856210708618164
0.407885074615478516 0.0946324020624160767 -0.338477432727813721
0.385571956634521484 0.0938123986124992371 -0.276762515306472778
0.417232155799865723 0.0295440014451742172 -0.331460028886795044
0.409239679574966431 0.0291785020381212234 -0.328053146600723267
0.402803659439086914 0.0480802021920681 -0.290001511573791504
0.399951577186584473 0.083026103675365448 -0.338734418153762817
0.504183173179626465 0.0309537015855312347 -0.326530545949935913
0.496175676584243774 0.0310124028474092484 -0.32744559645652771
0.487132668495178223 0.0323786027729511261 -0.342551738023757935
0.479153156280517578 0.0327282026410102844 -0.34714701771736145
0.471155107021331787 0.0328897014260292053 -0.349451512098312378
0.463137418031692505 0.0331100039184093475 -0.351916015148162842
0.455137193202972412 0.0330883003771305084 -0.352189511060714722
0.447115570306777954 0.0329869017004966736 -0.35184943675994873
0.439122468233108521 0.0326567031443119049 -0.348122715950012207
0.444649755954742432 0.15019640326499939 -0.340175628662109375
0.398204565048217773 0.0461113005876541138 -0.323954135179519653
0.415217876434326172 0.0309244021773338318 -0.33059266209602356
0.391933053731918335 0.0828049033880233765 -0.335465520620346069
0.394896268844604492 0.102865405380725861 -0.329957753419876099
0.510127246379852295 0.032385803759098053 -0.325681388378143311
0.502185285091400146 0.0325328037142753601 -0.327639371156692505
0.388907462358474731 0.0827022045850753784 -0.333830922842025757
0.486158668994903564 0.0339362025260925293 -0.344379633665084839
0.478148877620697021 0.0342623032629489899 -0.348304122686386108
0.470138698816299438 0.0344285033643245697 -0.350435435771942139
0.462134748697280884 0.034557100385427475 -0.352201312780380249
0.454132825136184692 0.0345932021737098694 -0.353230714797973633
0.44611126184463501 0.0344863012433052063 -0.352458029985427856
0.438139468431472778 0.0340644009411334991 -0.347833424806594849
0.425906956195831299 0.0905154049396514893 -0.341279834508895874
0.422195762395858765 0.0325713008642196655 -0.332411617040634155
0.414189577102661133 0.0323434025049209595 -0.33001282811164856
0.43170127272605896 0.142683401703834534 -0.33414381742477417
0.396498978137969971 0.161625400185585022 -0.380748122930526733
0.508135437965393066 0.033926401287317276 -0.32701420783996582
0.500175535678863525 0.0339391008019447327 -0.327800273895263672
0.37266165018081665 0.0991544052958488464 -0.296532511711120605
0.484161853790283203 0.0355538018047809601 -0.346948713064193726
0.476150274276733398 0.0357689037919044495 -0.349607318639755249
0.468144446611404419 0.0358501039445400238 -0.350920736789703369
0.46013680100440979 0.0360063016414642334 -0.352868825197219849
0.452112764120101929 0.0361083038151264191 -0.354387938976287842
0.444104462862014771 0.0358757004141807556 -0.352191418409347534
0.445578873157501221 0.160563409328460693 -0.345527023077011108
0.428170174360275269 0.0340140014886856079 -0.332097917795181274
0.420197576284408569 0.0339706018567085266 -0.33199012279510498
0.412185877561569214 0.033633701503276825 -0.328632265329360962
0.423909455537796021 0.0904954001307487488 -0.341247737407684326
0.39693915843963623 0.0800866037607192993 -0.338007420301437378
0.505166292190551758 0.0354031026363372803 -0.328071147203445435
0.497264653444290161 0.0353729017078876495 -0.328894197940826416
0.489057570695877075 0.0366823039948940277 -0.342893511056900024
0.481150954961776733 0.0371409021317958832 -0.349022626876831055
0.47314569354057312 0.0373212024569511414 -0.35128512978553772
0.465128570795059204 0.03735390305519104 -0.351853132247924805
0.45711904764175415 0.0375279039144515991 -0.354092925786972046
0.449106067419052124 0.0375109016895294189 -0.354492127895355225
